NCOLS 347
NROWS 32
XLLCORNER -16.5000654
YLLCORNER 9.7499721
CELLSIZE 0.04166665 
NODATA_value -2147483647 
-2147483647 -2147483647 -2147483647 -2147483647 -2147483647 -2147483647 5.68 21.04 16.72 14.32 -2147483647 -2147483647 -2147483647 16.48 -2147483647 -2147483647 -2147483647 -2147483647 -2147483647 -2147483647 -2147483647 -2147483647 -2147483647 -2147483647 -2147483647 -2147483647 -2147483647 -2147483647 -2147483647 -2147483647 5.92 11.52 -2147483647 -2147483647 17.12 26.32 21.12 8.56 15.36 20.64 42.4 22.72 30.72 20.32 44.08 53.12 78.48 105.6 128.8 135.52 162 214.24 206.8 94.56 134 115.52 170.64 194.48 279.84 384.16 348.96 297.36 405.76 374.64 365.36 370 455.68 475.52 535.68 646.64 745.68 914.72 1028.96 834.16 788 986.16 1016 921.44 571.68 456.32 579.84 794.56 1127.68 1397.12 1646.24 1672.88 1835.36 1708.08 1078.4 871.28 1269.04 1364.8 1418.32 1794.16 2028.72 2090.56 2062.24 1797.6 1909.28 2004.64 2068.96 2167.28 1827.92 1491.6 1437.68 1439.84 1453.84 1471.84 1399.44 1404.08 1498.96 1663.28 1645.84 1591.52 1672.96 1498.88 1237.68 1135.52 1145.12 1207.2 1171.92 1312.24 1430.08 1275.76 1218.48 1408.64 1324.56 1196.88 1215.36 985.52 838.8 846.4 838.64 874 842.4 815.68 821.44 819.92 799.12 788.32 814.96 801.28 792.88 815.84 810.08 810.32 835.52 808 816.4 815.44 805.68 898.96 829.6 814.48 1165.44 998.96 849.2 827.04 811.76 832.48 849.68 1036.32 880.48 815.04 828.56 815.44 818.08 787.12 776.96 767.68 734.4 711.6 709.36 709.12 700.56 713.92 765.2 774.96 764.32 775.12 823.44 805.44 781.12 776.64 744.96 738.56 787.2 783.2 729.36 760.8 808.08 804.48 773.2 781.2 780.08 787.84 771.84 772.96 776.08 731.2 736.8 754.48 774.32 788.88 753.28 749.12 737.52 754.4 743.6 726.16 694.64 679.2 705.92 715.84 723.52 744.32 763.92 740.16 715.68 707.92 734.48 716.24 740.72 762 738.08 708.64 715.04 698.32 700.32 679.6 673.84 643.36 668.32 652.32 662.64 660.4 671.44 680.48 697.44 667.6 617.28 658.32 632 620.48 619.2 643.36 660.8 655.2 684.24 677.68 727.04 710.16 702.16 677.28 754.16 958.8 1213.6 1057.6 1044.8 1064.48 1045.2 1030.48 1028.64 1069.68 1084.24 1042.8 1012 1106.48 1089.52 1134.96 1096.08 1083.04 1072.88 978.96 1077.44 1128.64 1065.28 1067.84 1074.56 1089.44 1023.76 974.24 913.68 808.16 890.72 959.2 968.4 906 945.2 822.64 865.76 834.56 816.32 682.48 676.48 631.84 648.88 650.4 625.52 632.72 633.28 624.48 610.8 597.44 676.08 587.12 592.56 591.44 707.44 566.24 541.12 550.88 587.84 548.16 535.44 542.72 522.8 519.84 530.72 632.24 643.76 603.28 610.64 624.08 589.04 568.56 533.28 531.2 494.08 544.48 532.96 570.08 578.96 551.2 547.52 558.32 584 600.4 624 622.16 606.48 642.24 671.28 655.44 655.84 661.44 676.32
-2147483647 -2147483647 -2147483647 -2147483647 -2147483647 -2147483647 -2147483647 -2147483647 -2147483647 -2147483647 -2147483647 -2147483647 -2147483647 -2147483647 -2147483647 -2147483647 -2147483647 -2147483647 -2147483647 -2147483647 -2147483647 -2147483647 -2147483647 -2147483647 -2147483647 -2147483647 -2147483647 -2147483647 -2147483647 -2147483647 13.84 -2147483647 -2147483647 2.4 20.4 19.2 16.48 16.24 6.32 18.08 10.72 16.16 13.92 -2147483647 30.32 51.12 65.12 90.56 65.2 109.68 163.6 121.76 162.8 92.8 100.8 127.84 287.68 244.96 212.48 223.92 271.36 280.56 411.68 393.68 412.64 516.8 443.68 581.2 616.96 646.48 826.48 934.96 735.76 752.96 890 1013.92 1162.24 1025.2 689.68 576.72 620 772.56 1250.48 1123.6 1406.64 1286 1291.44 859.2 596.56 1206.32 1556.4 1924.96 2087.6 2048.88 2095.84 2073.44 1724.32 1669.6 1946.88 2138.56 2112.8 1908.4 1561.44 1430.48 1434.8 1397.28 1390.8 1452.96 1369.36 1444.88 1391.68 1575.52 1450.24 1342.08 1310.8 1171.44 1228.08 1082.96 1226.16 1229.84 1239.68 1336.64 1371.12 1470 1551.28 1747.44 1705.12 1701.36 1648.48 1278.64 869.28 827.36 818.72 836.32 1312.08 1046.72 822 806.8 792 803.84 818.4 819.92 811.68 798.72 831.76 824.88 814.56 808.48 807.12 799.84 800.88 853.04 821.12 819.44 811.84 861.04 1068.24 861.84 840 850.48 867.36 1212.56 962.48 867.44 840.16 839.76 816.8 800 795.36 771.36 724 737.84 779.6 756.4 741.28 708.08 745.68 775.76 785.52 813.68 826.96 784.16 752.8 737.76 729.84 754.4 791.6 757.76 719.52 812.16 853.44 794.72 774.8 790.64 811.36 792.56 780.48 770.32 756.56 743.44 735.2 764.08 776.72 796 775.04 768 754.32 722.72 710.4 709.6 718.08 681.76 712.88 762.08 752.64 775.68 775.28 751.2 719.2 720.96 751.68 731.44 731.44 755.44 733.76 706.16 688.24 673.28 672.4 682.08 642.16 661.52 687.92 665.76 683.6 683.12 697.76 690.96 687.36 653.2 624.64 648.32 664.48 636.56 620.56 655.92 676.88 676.96 687.68 698.4 699.68 675.44 688.64 661.6 722.08 854.8 1053.44 1107.44 1031.92 1036.16 1044.4 981.36 1000.48 1004.8 986.4 1045.28 1077.92 1114.8 1120.8 1136.56 1137.12 1148.4 1105.84 1094.96 1121.36 1092.4 1121.92 1103.28 1126.56 1082.4 1009.52 930.32 883.6 824 847.2 1038.16 1003.84 994.64 944.88 884.4 951.36 780.4 672.64 644.48 670.08 638.08 644.96 650.08 631.04 616.48 610.56 599.6 593.52 641.76 677.68 656.64 706.32 634.4 569.92 547.04 574.24 621.76 656.96 607.52 560.32 582.88 588.32 586.48 523.52 545.68 588 577.92 613.92 637.28 569.76 539.6 512.96 518.08 504.56 549.2 568.24 562.08 577.52 596.64 585.44 578.72 579.84 598.16 628.24 639.6 647.92 695.76 686.88 660.24 629.68 622.24 644.8
-2147483647 -2147483647 -2147483647 -2147483647 -2147483647 -2147483647 -2147483647 -2147483647 -2147483647 -2147483647 -2147483647 -2147483647 -2147483647 -2147483647 -2147483647 -2147483647 -2147483647 -2147483647 -2147483647 -2147483647 -2147483647 -2147483647 -2147483647 -2147483647 -2147483647 -2147483647 -2147483647 -2147483647 -2147483647 -2147483647 -2147483647 -2147483647 -2147483647 5.36 10.56 13.2 8 12.72 5.52 12.56 -2147483647 10.8 13.92 33.12 32 49.6 63.12 77.28 59.6 57.12 113.44 174.4 166.96 100.96 189.6 218.08 241.04 410.08 379.04 373.2 224.56 404.48 374.16 405.68 523.76 579.6 572.96 595.68 663.36 702.08 776.88 676.4 719.52 757.76 875.92 875.6 709.84 798.8 808.56 753.84 760.64 928.48 992.8 1082.4 1297.44 882.64 594.08 648.88 728.24 1110.72 1671.68 2048.96 1993.36 1619.44 1606.88 1421.36 1516.08 1612.48 1794.4 1918 1622 1439.6 1399.68 1453.52 1393.92 1380.4 1390.8 1437.28 1538.4 1552.8 1540.56 1493.44 1574 1459.76 1334.24 1291.28 1291.6 1095.28 1274.48 1261.68 1415.44 1390.08 1427.12 1620.24 1638.56 1855.28 1698.32 1713.68 1750.48 1276.4 846.72 825.92 823.52 1480.48 1713.44 1005.28 818.32 794.4 824.08 806.16 818.64 833.92 816 813.6 834.32 823.04 813.36 805.2 796.72 808.32 809.12 812.08 827.28 889.68 828.4 811.76 869.44 889.84 887.6 879.36 832.96 818.64 840 854.32 812.72 816.48 790.48 774.56 759.2 742 717.36 738.32 797.52 780.72 752.48 711.6 735.84 757.52 784.72 806.96 830.8 792.16 752 751.84 772.4 780.48 801.04 748.16 734.8 778.88 841.36 801.04 797.36 801.12 810.4 777.68 758.32 760.48 756.48 736.72 760.8 762.4 771.36 805.44 790 758.48 728.96 734.64 736.08 733.92 716.08 689.52 711.36 725.44 727.36 766.96 770.88 746.4 724.16 731.84 735.04 753.84 729.92 757.92 731.68 702.72 691.52 697.92 684.56 653.2 654.64 690.96 680.4 679.92 693.68 694.32 664.16 648 646.72 635.44 636.64 652.24 673.84 672 641.52 632.48 628.72 683.68 703.6 693.2 691.12 665.28 684.32 653.6 686 848.16 1011.12 1003.76 1011.04 951.84 940.24 920.08 929.92 893.6 930.16 996.08 1057.68 1103.04 1090.64 1098.16 1115.36 1109.52 1067.44 1043.92 1060.08 1042.96 1097.68 1124.88 1067.12 1049.52 970.24 975.84 920.56 947.12 1053.76 1064.72 1064.64 1071.04 1004.96 960.56 774.32 684.08 646.16 658.4 629.28 631.52 628.8 660.8 664.32 664.72 622.4 622.32 629.12 651.76 649.28 692.4 669.76 619.28 562.72 542.64 599.68 682.08 675.04 643.44 566.48 606.24 679.12 620.88 573.6 527.04 546.24 566.08 625.28 637.12 567.44 557.52 543.76 494.08 506.08 525.92 595.76 618.4 596.8 621.12 620.88 622.16 618.96 614.8 629.12 614.4 668 684.08 711.92 692.48 677.76 621.04 592.8
-2147483647 -2147483647 -2147483647 -2147483647 -2147483647 -2147483647 -2147483647 -2147483647 -2147483647 -2147483647 -2147483647 -2147483647 -2147483647 -2147483647 -2147483647 -2147483647 -2147483647 -2147483647 -2147483647 -2147483647 -2147483647 -2147483647 -2147483647 -2147483647 -2147483647 -2147483647 -2147483647 -2147483647 -2147483647 -2147483647 -2147483647 -2147483647 -2147483647 -2147483647 6.8 5.84 20.08 17.68 -2147483647 -2147483647 -2147483647 12.96 22.96 31.76 31.2 42.88 56.08 65.04 45.2 48.48 80 139.04 54.24 179.6 235.68 377.84 303.68 377.6 370.88 342.48 223.36 330.56 445.36 534 593.68 692.96 745.28 717.36 616.72 615.84 689.92 802 726.24 800.32 826.08 723.04 718.72 715.92 683.28 805.44 851.04 839.04 1076.4 1010.08 1155.92 634.48 646.88 977.28 1250.96 1334.32 1214.96 1132.8 694.08 925.2 1038.88 1387.76 1795.28 1738.96 1793.04 1720.08 1462.24 1397.04 1391.04 1370.16 1374.32 1364.24 1362.64 1369.44 1587.68 1717.68 1714.96 1551.28 1556.4 1597.36 1430.88 1567.76 1582 1171.76 1334.56 1401.04 1412.8 1565.36 1414.8 1719.6 1790.24 1627.28 1656 1697.2 1268.16 894.32 830.72 842 982.48 1650.48 1322 871.68 805.84 832.16 844.8 818.88 829.36 839.84 819.68 827.68 839.12 818.4 813.04 810.48 812.32 814.32 790.16 812.8 814.56 826.4 832.24 848.64 830.96 924.64 996.64 898.56 847.76 817.04 797.52 795.84 801.2 778.56 771.44 756.56 716.16 729.12 725.76 778.48 794.64 792.16 756.24 716 764.96 781.6 788.32 824 812.96 804.56 776.4 740.48 781.36 816 817.92 763.2 729.84 727.92 821.68 832.72 823.52 820.72 813.52 787.92 767.92 761.36 756.32 742.88 775.6 781.12 789.6 797.36 806.8 781.84 751.12 769.04 756.8 720.16 737.68 712.64 685.84 716.32 737.12 748.72 738.56 763.36 754.88 764.32 737.28 768.24 749.28 758.64 743.84 718.88 694.48 669.12 676.16 654.48 683.76 703.04 679.84 692.56 705.28 696.48 677.04 646.16 635.36 669.52 661.28 657.84 673.92 660.72 669.92 635.76 643.68 682.08 678.16 663.44 663.52 657.44 659.84 674.56 675.04 668.4 870.96 920.32 958.8 891.04 826.64 816.32 797.04 856 916.08 918.4 991.68 1044.96 1063.2 1077.68 1111.12 1093.68 1046.56 994.56 1018.48 1000.16 1059.2 1117.84 1039.36 997.2 978.72 943.84 878.56 916.16 973.2 1036.16 1033.6 1010.24 962.48 762.8 663.92 651.2 634.48 628.96 632.24 619.68 615.6 636.64 664.96 683.76 653.52 629.04 669.92 705.6 621.52 614.8 619.52 585.76 562.64 571.36 631.28 648.8 614.48 580.4 585.76 629.04 624.24 581.36 548.32 542.72 530.72 560.4 579.6 604.24 601.6 577.44 556.08 518.8 491.68 527.44 592.4 675.44 640.16 607.12 632 617.36 648.8 647.12 597.84 588.96 639.12 628.64 664 685.52 650.4 619.36 605.84
-2147483647 -2147483647 -2147483647 -2147483647 -2147483647 -2147483647 -2147483647 -2147483647 -2147483647 -2147483647 -2147483647 -2147483647 -2147483647 -2147483647 -2147483647 -2147483647 -2147483647 -2147483647 -2147483647 -2147483647 -2147483647 -2147483647 -2147483647 -2147483647 -2147483647 -2147483647 -2147483647 -2147483647 -2147483647 -2147483647 -2147483647 -2147483647 -2147483647 -2147483647 6.4 24.96 18.32 16.16 6.16 -2147483647 3.6 7.6 9.68 15.92 23.44 26.08 35.92 40.08 21.44 19.76 29.68 24.72 110.96 259.84 301.04 445.12 463.44 338.16 359.28 197.92 305.36 348.32 434.48 381.04 478.32 636.08 701.44 827.2 806.4 759.52 764.16 853.44 678.8 672.32 742.8 688.64 621.52 653.36 667.92 619.12 695.84 860.88 984.4 1084.32 946.8 575.92 639.12 814.48 804.88 608.96 580 568.16 878.8 1907.28 1907.2 1773.84 1856.72 1918.16 1907.52 1867.36 1716.4 1581.2 1495.2 1393.2 1408.08 1396.64 1404 1399.84 1432 1585.12 1634.24 1658.8 1568.72 1609.36 1645.68 1730.56 1486.16 1167.12 1271.36 1606.8 1545.68 1639.04 1636.08 1731.92 1651.12 1543.44 1552.96 1212.88 853.92 847.44 865.6 883.04 1260 990 872.72 816.4 823.84 915.6 868.56 819.12 836.8 844.96 835.04 846.64 828.56 827.28 826.48 820.8 827.04 816.32 798.24 822 832.8 849.04 839.84 865.84 848.56 846.72 1006.32 918.16 857.6 820.16 801.52 788.48 770 781.28 767.52 775.36 726.24 797.52 763.2 782.48 798.4 778.4 737.84 736.96 769.76 778.32 806.96 822 823.76 799.52 781.52 759.44 804.32 830.32 816 764.96 737.68 739.68 814.96 810.4 824.32 822.56 817.68 788.16 783.68 781.52 769.6 750.8 749.12 775.04 780.96 791.12 800 806.88 789.04 786 756.88 750.08 758.88 747.04 695.68 700.16 718.64 732.08 741.04 749.84 730.96 760.08 750.96 760.32 776.96 772.72 762.56 721.68 697.2 675.76 656.48 675.84 724.24 699.36 697.76 711.36 699.44 689.76 665.84 642.32 651.6 696.72 660.16 660.24 665.68 674 683.04 648.8 626.16 636.16 645.76 639.44 665.6 638.48 656 667.12 654.48 655.44 707.68 858.24 847.76 916.08 814.4 733.92 752.72 808.8 857.92 898.4 956.72 990.64 1061.36 1077.84 1064.4 1068.64 1086.32 1047.2 990.32 962.64 1041.28 1059.6 1051.2 992.96 911.76 877.44 916 973.28 1004.4 964.96 979.04 942.16 681.68 674.64 660.56 641.04 661.12 650.48 665.52 646.72 611.6 613.04 650.32 682.72 661.92 656.08 672.24 686.64 642.72 604.16 570.72 551.12 563.84 601.92 694.32 626 598.48 621.04 617.92 603.28 580.56 561.84 537.84 522 510.56 539.44 575.92 625.76 583.36 547.84 514.48 494.72 496 538.64 604.08 637.84 591.2 586.16 593.44 607.68 625.52 631.28 580 555.44 596.56 587.04 612 638.96 660.24 665.84 660.88
-2147483647 -2147483647 -2147483647 -2147483647 -2147483647 -2147483647 -2147483647 -2147483647 -2147483647 -2147483647 -2147483647 -2147483647 -2147483647 -2147483647 -2147483647 -2147483647 -2147483647 -2147483647 -2147483647 -2147483647 -2147483647 -2147483647 -2147483647 -2147483647 -2147483647 -2147483647 -2147483647 -2147483647 -2147483647 -2147483647 -2147483647 -2147483647 -2147483647 -2147483647 10.88 19.12 9.6 6.72 17.68 -2147483647 -2147483647 7.28 5.84 12.72 12.88 16.64 19.76 20.96 29.6 18.08 41.76 30.96 98.72 298.24 319.2 518 429.04 352.48 280.48 250.48 232 295.28 300 536.24 543.68 491.92 548 674.16 800.72 726.88 793.12 652.16 724.16 552.24 568.64 615.36 655.68 750.4 824.24 641.52 712.96 850 1087.04 958.64 657.36 574.4 595.28 623.2 757.84 628.96 585.2 821.76 878.8 1145.76 1472.56 1477.76 1780.32 1877.84 1955.28 1947.04 2025.68 2112.24 1929.28 1456.08 1503.36 1570.56 1436.64 1521.92 1647.28 1684.08 1691.52 1648.8 1672.64 1654.56 1664.72 1594.16 1492 1353.84 1243.6 1475.28 1628.4 1635.2 1763.76 1649.84 1681.68 1556.8 956 870.16 872.8 885.36 925.44 951.52 933.44 839.28 859.6 1015.28 862.88 857.28 844.08 839.84 834.56 855.92 860.32 855.28 842.48 846.16 834.56 830.24 813.52 796.72 805.68 824.64 834.56 863.44 860.16 855.28 856 853.12 855.92 944.64 869.92 836.32 819.28 800.88 787.76 780.24 783.12 783.76 724.88 758.88 790.08 789.84 807.44 782.96 747.44 720.96 745.28 775.52 824.16 820.72 832.4 818.08 806.72 756.4 798.96 815.2 796 735.52 733.04 756.24 793.84 777.76 803.84 829.28 839.52 812.56 807.12 798 773.92 754.08 738.24 744.32 771.36 774.72 778.8 797.12 816.56 790.56 784.56 787.04 764.96 758.8 720.08 694 690.56 726.16 732.88 736.16 751.6 764.32 785.36 782.24 746.4 746.24 720.56 729.6 695.68 662.4 682.32 694.72 723.68 720.24 721.6 702.64 692.56 684.72 647.76 659.92 674.48 693.68 657.44 663.76 682.24 699.12 705.92 672.4 632.8 643.36 658.24 648.88 717.52 675.76 647.44 644.56 637.44 646.56 701.6 759.76 779.76 834.56 813.12 727.52 857.28 818.48 845.76 907.2 969.04 1015.76 1090.08 1083.44 1070.24 1026.24 1036.24 1013.44 985.92 996.88 998.64 1009.84 979.6 981.52 936.64 922.8 910.32 914.48 922.64 945.44 864.48 679.6 630 664.16 657.68 672.72 704.64 673.84 637.04 624.4 615.28 602.24 652.16 660.4 642.16 660.24 693.84 633.36 607.04 570.96 556.48 577.68 609.44 607.28 668.96 646.32 654.48 622.4 584.4 563.76 560.96 567.6 575.92 524.72 513.2 539.2 574.4 618.48 568.88 529.68 511.2 490.24 519.12 536.88 568.64 601.2 568.24 592.72 606.08 620 651.68 628.48 579.36 546.32 550.48 573.12 606.08 592.16 622.72 670.72 681.6
-2147483647 -2147483647 -2147483647 -2147483647 -2147483647 -2147483647 -2147483647 -2147483647 -2147483647 -2147483647 -2147483647 -2147483647 -2147483647 -2147483647 -2147483647 -2147483647 -2147483647 -2147483647 -2147483647 -2147483647 -2147483647 -2147483647 -2147483647 -2147483647 -2147483647 -2147483647 -2147483647 -2147483647 -2147483647 -2147483647 -2147483647 -2147483647 -2147483647 -2147483647 -2147483647 13.2 11.92 -2147483647 -2147483647 -2147483647 -2147483647 -2147483647 8.64 12.08 9.2 11.76 6.24 11.84 30.16 34.64 49.92 45.84 47.6 147.52 357.28 493.6 403.44 398.4 319.04 246.24 411.12 311.52 342.4 614.08 575.04 428.88 448.56 546.88 694.48 587.84 630.96 520.8 495.84 712.24 637.2 630.16 667.92 777.12 917.76 831.6 741.76 1110.56 1236.64 903.6 683.6 582.24 624 624.88 627.76 559.6 776.4 815.84 621.2 634.64 806.08 1276.8 1524.32 1651.28 1817.36 1956 2024.24 2161.36 2212.64 2071.6 2007.28 1481.6 1475.04 1512.88 1646.32 1694.88 1805.36 1688.32 1679.28 1568.88 1343.92 1294.96 1203.04 1190.16 1249.04 1476.08 1518.4 1357.36 1526.08 1672.96 1696.96 1159.04 902.48 1036.8 1085.04 1422.56 1268.56 1139.84 854.72 920.24 1098.4 1256.8 1340 1181.68 1038 865.36 862.24 861.04 876.32 861.36 844.96 843.68 841.12 824.88 822 802.96 814.16 833.28 847.68 849.92 844.48 830 816.72 825.04 816.32 919.04 889.44 831.6 829.52 809.84 801.44 816.8 802.88 770.72 730.16 780.08 805.12 805.68 809.2 788.4 746 717.12 768.88 793.92 828.64 857.12 814.56 832.72 817.12 758.16 787.04 834 804.16 790.96 764.48 767.84 809.52 845.76 812.32 811.68 824.96 803.92 791.92 781.68 760.96 776.4 760.24 749.6 751.28 775.92 788.4 799.52 791.44 746.48 745.04 765.2 732.48 736.56 704 725.76 720.56 697.76 697.28 731.44 771.68 765.04 765.04 756.72 740 710.88 716.56 694.24 706.4 677.12 703.76 721.2 708 687.04 688.56 706.72 693.84 674.32 649.6 666.88 682.88 692.96 665.52 670.08 694.08 691.44 677.12 671.44 627.6 657.28 693.44 684 718 689.2 673.36 662.48 667.92 647.2 694.16 727.84 716.64 713.36 682.64 765.76 866.64 912.32 926.96 981.2 967.6 1021.44 1085.52 1069.76 1074.48 1023.12 1059.12 1073.12 1092.08 1065.68 949.92 951.68 941.28 986.32 1046.64 948.64 806.64 857.84 903.2 739.52 636.88 617.6 602.56 634.16 674.72 686.48 685.68 651.76 643.68 650.32 644.72 602.48 634.72 638.24 620 666.32 683.28 664.72 579.76 723.52 588.16 587.6 637.76 667.44 651.52 672.56 637.44 602.08 588.88 600.32 598.32 580.72 545.52 513.92 502.96 507.68 519.36 563.6 552 543.6 504.4 513.28 546.72 559.44 593.68 585.52 561.36 587.6 630.56 638.24 664.08 614.88 565.44 541.52 553.52 582.08 615.2 565.92 587.2 639.12 644.72
-2147483647 -2147483647 -2147483647 -2147483647 -2147483647 -2147483647 -2147483647 -2147483647 -2147483647 -2147483647 -2147483647 -2147483647 -2147483647 -2147483647 -2147483647 -2147483647 -2147483647 -2147483647 -2147483647 -2147483647 -2147483647 -2147483647 -2147483647 -2147483647 -2147483647 -2147483647 -2147483647 -2147483647 -2147483647 -2147483647 -2147483647 -2147483647 -2147483647 -2147483647 -2147483647 -2147483647 -2147483647 -2147483647 -2147483647 -2147483647 -2147483647 3.52 9.44 5.6 9.6 7.2 -2147483647 12.88 30.48 44.72 57.04 65.12 62.64 104.88 288.8 433.04 378.72 343.04 252.4 343.2 332.72 297.04 496.08 436 420.48 339.92 286.4 439.44 589.84 512.64 513.6 472.16 654.72 769.36 831.52 638.56 669.68 760.48 780 926.96 1037.44 906.8 1028.64 1207.28 930.48 552.48 744.96 714.88 565.2 628.56 664.88 723.04 680.72 683.12 1189.92 1161.84 1258.96 1454.96 1480.08 1832.96 2007.12 2187.76 2234.96 2338.08 1857.28 1520.16 1526.72 1628.48 1683.04 1689.76 1692.08 1555.2 1404.8 1312.88 1323.52 1559.76 1233.76 1280.64 1373.12 1282 1294.8 1320.08 1324.24 1371.36 1463.6 1488.88 1359.84 1626 1612.4 1225.84 872.08 841.76 950.8 1085.12 1202.64 1688.56 1674.64 1436.8 1306.88 887.68 883.2 862.64 847.68 845.2 824.32 817.52 816.88 810.56 807.6 821.12 833.44 839.6 861.12 841.44 830.16 810.56 820.64 799.6 795.12 809.2 843.84 813.28 813.84 809.12 813.44 831.36 789.92 732.64 732.48 798.4 800.48 805.92 805.36 779.76 740.56 723.36 761.76 803.6 839.84 848.88 851.44 837.52 806.96 760.8 789.04 831.36 828.24 786.8 740.24 782.48 814 862.08 872.56 857.84 851.44 813.2 801.36 774.32 790.16 797.28 781.52 762 757.76 779.84 788.32 794 799.68 754.8 723.52 715.28 701.44 706.56 721.6 763.84 746.16 743.92 721.76 712 729.84 748.56 775.28 742.4 718.88 694.88 706 683.84 671.2 700.88 724.24 726.16 692.72 701.44 677.52 688.48 685.52 655.44 658.08 685.92 684.56 686.4 668.24 687.28 696.96 667.28 662.72 649.36 633.2 667.76 674.96 688.56 725.68 699.04 668.64 670.8 674.72 642.8 683.92 705.2 700.48 674.88 681.6 703.44 837.36 943.84 992.48 1144.88 1087.04 988.96 1110.4 1076.72 1071.36 1025.6 962.32 947.28 1053.12 1004.64 995.76 914.8 954.4 925.44 1055.6 930.64 680.24 683.04 675.68 641.6 618.96 601.76 602.24 638.96 629.28 628.32 675.04 674.24 649.36 652.88 627.12 614 596.56 625.12 610.16 661.84 645.68 610.08 646.48 731.44 626.96 589.84 614.48 669.76 683.6 694.96 655.76 651.36 627.12 597.44 560 546.16 523.92 535.92 539.44 522.56 502.56 511.84 506.08 525.76 492 515.12 539.12 560.08 578.16 582.96 558 596 597.2 620.4 633.68 604.4 565.36 532.72 547.6 589.68 609.76 557.76 567.76 604.88 602
-2147483647 -2147483647 -2147483647 -2147483647 -2147483647 -2147483647 -2147483647 -2147483647 -2147483647 -2147483647 -2147483647 -2147483647 -2147483647 -2147483647 -2147483647 -2147483647 -2147483647 -2147483647 -2147483647 -2147483647 -2147483647 -2147483647 -2147483647 -2147483647 -2147483647 -2147483647 -2147483647 -2147483647 -2147483647 -2147483647 -2147483647 -2147483647 -2147483647 -2147483647 -2147483647 -2147483647 -2147483647 -2147483647 -2147483647 -2147483647 -2147483647 5.84 -2147483647 8.4 6.4 -2147483647 10.4 16 16.88 34 35.36 45.52 95.68 61.68 149.04 350.32 327.92 279.6 268.08 427.36 222.32 284.88 425.36 397.04 387.6 371.84 287.76 420.88 587.92 422.48 488.88 535.04 714.08 879.44 917.68 769.6 773.28 899.84 899.84 874.24 920.88 1010.48 1114.96 1131.2 984.48 546.16 662.4 562.32 572.4 600.48 805.04 812.88 864 822.56 1338.16 1135.84 1089.04 1139.04 1293.92 1599.92 1847.12 2223.68 2338.56 2341.76 1909.28 1583.52 1576.32 1768.4 1823.6 1713.84 1596.96 1321.36 1380.16 1317.76 1261.52 1313.6 1304.72 1486.96 1403.28 1392.64 1319.36 1322 1472.48 1406.08 1340.96 1250.88 1209.04 1285.28 985.04 859.28 845.2 1002.64 1236 1265.04 1251.44 1402.32 1282.56 1061.2 1159.84 876.32 856.72 846.8 838.4 833.28 839.2 841.28 831.2 834 818.64 824.64 846.96 863.2 839.84 840.4 846.8 837.2 818.32 778.4 786 845.68 821.04 796.16 797.04 775.76 798.56 769.28 733.68 774.8 760.56 752.8 768.08 807.12 800.24 771.2 728.64 732 779.76 798.64 819.52 813.6 855.28 840.48 814.64 764.4 808.24 820.32 783.2 738.32 738.4 790.24 853.36 837.04 857.6 850.96 854.72 816.16 796.32 817.6 826.96 804.64 789.92 769.84 747.44 763.04 778 795.36 804.64 755.28 732.96 705.92 711.92 703.76 747.84 775.12 779.04 765.04 716.8 722.64 753.76 752.32 759.12 731.04 732.64 722.96 711.92 675.2 701.12 722.56 734.72 716.08 715.36 694.56 692.48 676.72 664.56 675.2 645.36 681.2 690.64 698.96 684.16 703.2 692.96 686.64 688.56 669.44 633.12 638.8 690.48 734.24 713.04 685.12 669.92 686.64 676.8 655.76 654.48 684.64 688 682.24 680.16 677.84 748.72 986.64 1085.2 1121.84 1080.96 906.96 963.44 994.64 1038.24 932.88 869.04 851.36 918.96 930.08 850.56 878.32 868.64 799.92 701.84 639.44 610.4 619.92 663.84 645.92 604.08 593.68 591.28 612.48 594.32 618.24 658.32 668.16 638.32 623.52 646.96 652.56 633.6 595.84 594.8 626.72 654.88 593.04 713.84 698.48 633.76 648.24 613.68 618.64 659.6 707.04 683.92 649.44 602.32 575.36 558.48 564.08 555.52 584.4 565.2 531.44 510.4 519.04 493.12 491.36 503.76 513.84 508.4 522.32 532.24 545.12 539.84 560.96 580.8 612.4 609.6 581.12 556.08 517.84 537.92 583.28 588.24 557.92 537.28 564 585.12
-2147483647 -2147483647 -2147483647 -2147483647 -2147483647 -2147483647 -2147483647 -2147483647 -2147483647 -2147483647 -2147483647 -2147483647 -2147483647 -2147483647 -2147483647 -2147483647 -2147483647 -2147483647 -2147483647 -2147483647 -2147483647 -2147483647 -2147483647 -2147483647 -2147483647 -2147483647 -2147483647 -2147483647 -2147483647 -2147483647 -2147483647 -2147483647 -2147483647 -2147483647 -2147483647 -2147483647 -2147483647 -2147483647 -2147483647 -2147483647 -2147483647 -2147483647 -2147483647 6.24 3.28 3.6 8 15.2 13.52 11.76 49.6 60.32 165.92 91.68 112.56 169.76 276.4 362.72 500.64 443.6 293.2 182.08 289.44 374.56 334.96 329.52 393.04 318.32 418.08 454.16 484.32 542.48 892.56 882 925.2 762 833.28 846.8 1023.12 786.16 793.6 858.88 840.16 609.92 576.64 490 520.72 512.32 532.48 563.76 631.12 723.04 968.56 953.2 947.12 1283.92 1066.32 947.76 1345.44 1578.72 1822.8 2244.88 2481.44 2233.84 1570.24 1512.08 1562.08 1609.36 1663.2 1718.72 1533.92 1504.4 1464.48 1397.28 1385.2 1464.96 1545.36 1428.64 1588.56 1736.8 1495.04 1326.72 1360.72 1362.8 1274.8 1250.8 1149.2 1076.4 901.84 915.6 1171.2 1151.12 1069.12 927.2 910.24 880.64 896.72 902.64 988.48 910.48 879.36 879.2 871.68 859.92 868.4 869.28 851.44 835.52 852.48 849.2 850.24 860 831.04 803.92 817.12 833.68 818.4 792.56 794.16 804.8 779.2 753.76 764.64 740.8 739.12 740.48 749.6 815.76 805.36 766 754 814.4 786.4 745.52 735.04 770.08 772 776.56 803.2 806.88 837.04 813.6 804.96 781.84 800.96 831.44 810.24 782.16 740.72 764.24 821.44 878.24 848.8 829.12 851.28 848.16 832.24 815.28 812.64 799.84 784.96 783.12 759.76 780.24 789.76 803.36 765.44 766.4 740.96 706.16 709.76 723.68 738.08 766.32 801.2 751.84 708.08 730.72 735.28 744.96 739.84 726.56 706.16 696.24 688.96 691.04 719.04 728.32 754.4 736.48 736.48 723.28 713.92 688.16 679.36 694.64 653.92 680.88 669.04 694.72 710.32 705.12 687.52 669.04 667.6 661.12 631.68 650.64 673.12 689.28 682.24 696.56 688.72 702.24 679.52 653.44 652.64 676.64 658.32 658.88 667.52 684.72 730.16 1000.32 1030.32 811.28 865.2 958.4 887.68 919.28 838.4 786.16 734.08 697.68 745.12 829.44 700.08 685.84 671.2 609.52 569.12 565.44 626.48 661.12 640.16 630.24 622.96 584.24 579.36 592.48 618.4 650.72 651.44 651.36 653.84 658.8 679.76 655.36 645.28 629.28 634.88 600.8 592.56 595.36 702.48 691.6 702.96 687.44 632.72 622.72 646.56 678.4 687.52 666.16 606.08 605.76 608.48 600.8 586 559.04 532.16 538 532.88 563.76 541.2 493.92 504.96 551.36 551.36 551.28 543.28 560.96 545.68 556.16 565.2 575.12 606.56 560.56 547.92 508.56 543.44 559.76 580.4 583.92 530.96 530.72 583.44
-2147483647 -2147483647 -2147483647 -2147483647 -2147483647 -2147483647 -2147483647 -2147483647 -2147483647 -2147483647 -2147483647 -2147483647 -2147483647 -2147483647 -2147483647 -2147483647 -2147483647 -2147483647 -2147483647 -2147483647 -2147483647 -2147483647 -2147483647 -2147483647 -2147483647 -2147483647 -2147483647 -2147483647 -2147483647 -2147483647 -2147483647 -2147483647 -2147483647 -2147483647 -2147483647 -2147483647 -2147483647 -2147483647 -2147483647 -2147483647 -2147483647 -2147483647 -2147483647 4.4 -2147483647 5.6 9.36 6.96 6.08 29.84 55.68 68.56 176.16 172.4 230.24 288.72 229.36 308.72 586 503.2 324.96 270.24 180 380.64 416.64 362.32 350.88 328.72 303.2 408.96 412.88 495.04 658.32 701.36 708.32 695.28 1078.24 1196.48 1181.44 741.92 774.72 841.2 811.04 553.84 561.36 478.88 567.04 535.92 570.72 623.92 627.44 694.24 966.4 898 880.32 883.04 766.32 1037.44 1269.04 1910.24 2066.64 2384.8 2405.28 2051.12 1545.92 1424 1505.92 1517.68 1618 1626.4 1484.56 1417.12 1526.88 1298.8 1348.16 1344.4 1321.36 1455.92 1626.72 1834.96 1525.44 1356.32 1396.8 1399.2 1557.52 1395.44 1252.64 1206.88 1416.16 1325.76 1375.04 1279.92 992 941.2 918.64 890.48 860.64 890.48 884.72 884.64 872.24 880.88 891.12 892.64 878.8 866.64 856 854.64 847.6 861.28 861.92 843.84 838.88 827.28 793.52 811.84 810.72 794.72 766.88 763.2 799.84 749.36 743.92 741.44 740.96 791.2 811.2 825.04 819.12 778.64 794.56 820.24 791.52 761.36 729.92 738 779.36 804.72 819.12 824.96 852.88 835.92 825.2 791.36 792.08 835.68 818.16 765.84 733.76 793.36 838.88 831.68 820.32 821.36 839.68 850.32 822.16 806.4 785.04 784.64 795.2 786.56 756.88 767.84 795.44 800.64 759.12 739.76 731.84 711.92 732.8 746.88 743.04 770.16 780.32 751.36 714.8 750.8 732.72 767.76 764.24 765.6 724.64 708.32 696 697.84 733.2 754.08 768.64 767.68 758.24 755.04 719.44 682 707.68 674.08 657.04 671.2 694.24 705.6 698.72 683.6 673.2 671.84 672.64 678.64 641.84 663.44 694.56 662.24 674 685.12 689.2 710.72 683.6 667.68 657.92 654.48 666.96 674 675.6 698.16 723.68 775.92 665.2 676.08 960.4 890.64 799.12 816 767.36 698.96 664.8 628.24 671.52 696.32 635.84 610.56 594.16 574.32 565.84 571.44 645.04 671.52 621.28 605.12 603.2 571.76 590.8 579.04 596.24 651.76 686.24 678.88 669.6 646.72 637.36 629.52 626.64 604 603.36 614.24 631.76 608.72 631.52 644 697.04 699.2 636.72 646.16 676.72 711.12 652 640.24 628.64 632 638.48 627.2 592.16 565.36 561.92 584.32 544.56 591.76 544.64 488.96 521.6 560.88 563.52 594.96 587.92 600.48 578.56 590.24 574 592.56 608.48 548.32 526.4 504.88 540.32 528.8 567.68 549.52 522.24 520.16 537.36
-2147483647 -2147483647 -2147483647 -2147483647 -2147483647 -2147483647 -2147483647 -2147483647 -2147483647 -2147483647 -2147483647 -2147483647 -2147483647 -2147483647 -2147483647 -2147483647 -2147483647 -2147483647 -2147483647 -2147483647 -2147483647 -2147483647 -2147483647 -2147483647 -2147483647 -2147483647 -2147483647 -2147483647 -2147483647 -2147483647 -2147483647 -2147483647 -2147483647 -2147483647 -2147483647 -2147483647 -2147483647 -2147483647 -2147483647 -2147483647 -2147483647 -2147483647 -2147483647 -2147483647 -2147483647 4.48 11.52 8.64 4.72 21.28 52.64 85.12 232.4 271.36 287.76 196.16 194.48 353.84 491.68 516.08 408.16 282.64 207.44 143.92 183.2 222.32 259.76 366.48 247.92 225.12 385.52 446.32 612.24 671.84 453.2 491.6 832.24 962.64 908.8 559.2 692.56 727.36 1068.32 917.52 508.32 520.32 513.12 488.64 590.96 651.84 581.84 629.76 850.48 857.12 814.48 776.4 779.76 861.36 1223.52 1677.52 1929.84 2018.48 1862.4 1798.8 1441.2 1355.84 1492.32 1545.36 1601.2 1714.32 1546.16 1555.04 1492.16 1451.76 1296.64 1308.32 1338.48 1387.92 1583.52 1730.24 1559.84 1607.2 1741.84 1499.04 1511.04 1502.64 1467.04 1260.16 1205.52 1126.56 960 1056.72 1077.2 1170.08 978.88 922.4 886.72 858.08 852.72 861.12 858.32 856.32 870.88 866.8 866.32 840.32 857.44 824.88 824 835.76 847.12 836 812 808.72 806.16 775.52 762.16 762 754.24 783.84 871.44 820.32 770 753.76 764.4 781.68 857.44 861.76 819.84 800.32 807.2 833.76 801.28 779.76 737.52 745.68 753.12 794.72 824.56 839.2 857.12 833.36 799.04 798.24 817.36 820.32 798.48 746.08 742.08 741.84 786.72 789.44 801.2 809.44 822.8 851.04 831.68 810.72 816.8 822 799.12 783.76 764 778.32 808.4 762.88 736.48 712.32 714.8 736.88 766.4 757.68 752 780.64 751.28 742.24 722.16 756.24 744.88 778 785.52 782.16 735.2 715.84 703.36 701.04 719.92 725.84 773.44 786.4 749.84 724.24 695.76 701.68 696.48 666.16 674.96 694 693.12 694 709.36 685.12 677.2 692.16 696.8 673.04 635.84 665.6 731.92 689.76 673.76 678.4 693.12 713.52 691.84 669.2 673.6 666.88 680.4 697.52 700.56 711.04 684.8 662.88 652.24 671.12 835.12 685.28 676.72 740.72 652 634.48 625.12 618.32 630.96 653.04 630.08 601.92 590.72 592.4 565.92 588.24 640.64 625.28 644.08 614.4 592.56 575.68 567.28 581.92 618.56 647.2 664 677.2 661.04 665.12 653.36 668.8 650.56 611.44 653.84 676.4 624.96 613.92 658.4 686.88 688.72 690.48 638.4 656 704.88 733.68 714.32 690.8 656.48 644.32 666.32 632.96 609.84 568.88 598.88 576.72 576.72 633.12 559.52 489.04 503.84 529.04 529.36 541.6 562.72 597.84 625.84 633.2 594.8 603.12 602.56 565.76 528.24 499.76 505.12 525.2 545.44 523.92 491.2 517.12 565.76
-2147483647 -2147483647 -2147483647 -2147483647 -2147483647 -2147483647 -2147483647 -2147483647 -2147483647 -2147483647 -2147483647 -2147483647 -2147483647 -2147483647 -2147483647 -2147483647 -2147483647 -2147483647 -2147483647 -2147483647 -2147483647 -2147483647 -2147483647 -2147483647 -2147483647 -2147483647 -2147483647 -2147483647 -2147483647 -2147483647 -2147483647 -2147483647 -2147483647 -2147483647 -2147483647 -2147483647 -2147483647 -2147483647 -2147483647 -2147483647 -2147483647 -2147483647 -2147483647 -2147483647 -2147483647 9.04 8.88 7.6 3.76 21.44 51.52 69.52 130.24 376.48 310.48 249.2 112.64 347.12 437.12 383.92 341.36 358.24 229.44 219.12 173.04 178.16 206.24 174.16 328.96 332.96 301.68 447.92 559.2 642.4 456.8 460 518.4 754.16 590.96 530.48 776.08 954.32 1135.76 1144.24 610.08 497.04 479.84 469.92 506.88 527.92 560.56 727.84 805.76 771.04 825.92 825.92 776.72 928.24 1346.32 1704.56 1268.64 1909.6 1594.96 1768.24 1552.08 1423.44 1363.92 1491.92 1677.52 1618.4 1446.72 1383.04 1317.52 1296.48 1331.44 1316.56 1549.6 1758.56 1673.12 1639.84 1730.4 1881.52 1875.6 1606.56 1542.4 1435.76 1318.56 1417.2 1330 1143.84 1017.76 933.76 959.6 933.36 966.64 932.8 927.92 922.56 895.68 856.48 838.16 837.92 855.36 840.32 834.8 826.08 831.76 826.48 810.24 819.68 830.4 820.56 819.12 800.64 772.8 794.24 808.24 819.84 799.6 834.08 947.68 953.84 767.04 780.72 813.52 802.8 801.52 813.84 830.32 810.8 831.28 818.72 794.88 770.56 743.68 752.08 759.52 792.16 830.24 861.36 880.96 827.92 809.28 845.36 846.96 817.92 792.4 786.4 756.24 747.84 790.32 800.24 838.56 825.36 841.52 866.8 832.24 835.92 849.52 826.32 805.76 779.92 752.48 784.08 814.48 779.92 772.32 754.96 714.72 760.16 788.56 793.52 777.68 801.12 761.28 736.56 734.8 774.32 764.24 754 788.08 795.68 741.12 703.12 729.36 714.4 715.12 750.96 785.6 756.48 749.6 725.6 729.12 724.4 715.2 664.64 670.88 717.84 719.12 700 721.2 694.96 690.64 709.76 703.92 686.48 642.88 691.2 724.96 706.08 708.48 689.12 696.8 713.12 696 684.72 684.64 696.16 672.32 689.36 697.84 686.24 690.8 666.64 639.76 653.12 658.08 673.12 697.04 719.92 677.76 647.12 615.68 604 626.96 649.68 624.24 633.92 603.52 579.36 558.56 588.96 654.4 595.36 618.64 619.44 586.88 578.16 565.2 594.16 591.28 607.2 617.36 665.68 697.28 672 711.12 642.72 623.12 621.76 666.88 678.24 649.92 610.96 634.8 667.28 705.52 710.08 661.52 704.64 738.56 720.4 698.96 690.8 688.48 686 684.48 663.92 606.56 601.36 619.12 611.28 604.8 642 568.16 519.44 491.04 509.84 560.88 582 585.92 597.92 622.56 644.08 631.76 647.28 622.24 581.76 547.6 510.96 488.56 488.16 528.32 493.44 497.2 539.36 586.4
-2147483647 -2147483647 -2147483647 -2147483647 -2147483647 -2147483647 -2147483647 -2147483647 -2147483647 -2147483647 -2147483647 -2147483647 -2147483647 -2147483647 -2147483647 -2147483647 -2147483647 -2147483647 -2147483647 -2147483647 -2147483647 -2147483647 -2147483647 -2147483647 -2147483647 -2147483647 -2147483647 -2147483647 -2147483647 -2147483647 -2147483647 -2147483647 -2147483647 -2147483647 -2147483647 -2147483647 -2147483647 -2147483647 -2147483647 -2147483647 -2147483647 -2147483647 -2147483647 -2147483647 5.44 11.28 9.6 4.16 6.16 16 52.8 70.64 98.16 247.84 204.8 231.84 117.28 155.36 280.72 188.24 398.64 402.96 302.24 334.08 239.04 117.84 122.96 181.44 447.28 442.64 249.52 324.24 469.6 457.6 268 354.32 584.24 738.56 584.56 537.04 683.6 948.08 1219.92 851.2 470.24 457.2 464.48 464.08 467.04 539.2 679.2 737.76 752.56 825.6 1060.16 1207.36 887.28 746.8 963.12 873.76 1159.84 1609.04 1279.04 1699.52 1589.76 1482.32 1351.52 1341.6 1321.12 1304 1336.32 1375.6 1398.8 1355.36 1592.72 1609.84 1700 1710.24 1673.52 1650.88 1633.2 1608.16 1820.16 1744.32 1430.32 1274.48 1307.52 1359.44 1377.12 1350.88 1143.52 999.04 936 908.8 904.24 947.2 965.84 899.04 931.04 932.16 885.84 878 840.4 839.28 832 801.12 796 791.68 792.16 789.2 786.32 827.2 778.4 779.2 792.88 831.04 845.52 836.8 851.68 815.84 888.56 859.44 807.28 786.4 813.52 830.32 836.08 824.88 840.08 839.2 844.32 811.36 787.36 791.28 749.52 743.44 782.48 766.56 783.28 837.52 848.8 857.04 846.16 835.84 856.72 828.8 812.56 788.48 745.12 788.8 825.76 819.04 835.52 828.64 858.56 873.04 848.56 862.96 830.72 823.6 800.4 777.6 763.68 785.6 812.16 813.68 797.68 743.12 716 722.64 762.24 789.76 804.8 811.36 757.84 748.4 725.44 776 793.2 776.08 789.44 797.92 734.96 708.56 748.32 731.36 710.64 756.96 784.4 740.08 728.88 735.92 729.12 706.88 701.76 682.4 709.2 732.4 737.2 715.2 730.16 728.4 720.16 695.52 683.36 670.8 642.56 670.72 688.8 679.28 685.68 688.16 695.52 694.16 707.12 723.28 705.2 713.76 695.84 697.12 672.56 658.24 669.44 663.68 632.48 668.64 639.68 682.4 716.32 676.56 643.36 648.32 645.44 617.44 630.88 644.96 606.64 594.24 598.88 580.56 573.04 572.24 617.52 574.48 610 605.92 578.48 553.44 556.4 568.08 583.84 586.64 613.04 648.56 702.16 711.12 692.16 647.36 644.96 652.88 671.28 656.4 648.32 648.72 624.88 647.04 676.56 707.2 684.56 715.6 756.8 713.2 693.2 668.4 650.96 686.8 674.24 656.64 630.72 630.16 599.84 599.2 592.56 654.24 572.56 536.8 485.76 519.36 542 574 602.88 598.48 617.12 596.32 601.84 633.2 599.52 566.48 537.68 513.76 512.88 509.04 479.76 478.08 499.68 508.8 545.6
-2147483647 -2147483647 -2147483647 -2147483647 -2147483647 -2147483647 -2147483647 -2147483647 -2147483647 -2147483647 -2147483647 -2147483647 -2147483647 -2147483647 -2147483647 -2147483647 -2147483647 -2147483647 -2147483647 -2147483647 -2147483647 -2147483647 -2147483647 -2147483647 -2147483647 -2147483647 -2147483647 -2147483647 -2147483647 -2147483647 -2147483647 -2147483647 -2147483647 -2147483647 -2147483647 -2147483647 -2147483647 -2147483647 -2147483647 -2147483647 -2147483647 -2147483647 -2147483647 -2147483647 4.56 4.96 -2147483647 3.92 5.12 16 43.92 79.36 186.08 163.52 240.8 122.4 186.24 294 165.28 224.4 450.56 387.44 336.72 259.92 270.48 150.88 205.12 339.84 439.84 475.76 372.32 295.12 188.08 373.52 568.88 550.08 308.96 576.08 542.32 508.32 672.4 570.72 673.52 490 420.88 537.44 486.56 495.92 575.44 636.64 605.84 668.32 789.04 903.28 1099.6 1030.32 930.4 757.52 757.12 895.84 1007.76 927.92 1125.2 1723.12 1634.96 1571.76 1490.08 1368.56 1373.68 1318.4 1588.56 1450.64 1343.52 1358.96 1415.92 1755.52 1671.6 1491.68 1656.56 1669.28 1776.4 1657.52 1554.88 1506.8 1327.04 1411.76 1397.92 1370.4 1594.4 1140 993.12 979.36 946.48 922.48 900.72 880.32 904.24 887.92 950.72 927.84 906.72 917.36 883.52 855.52 819.36 816.72 851.44 830.16 837.68 828.48 786.32 791.52 783.76 798.08 808.72 841.92 876.08 1013.92 909.76 831.28 798.64 765.28 865.44 867.28 841.92 886.8 858.88 865.84 869.12 849.36 846.16 818.72 809.36 785.6 748.88 760.4 807.12 804.8 777.12 800.16 833.6 852.32 852.24 844.64 859.76 849.68 827.84 796.16 753.6 757.92 784.8 794.08 796.56 825.28 850.56 865.6 827.92 845.76 837.6 844.08 812.56 770.4 802 804.16 818.48 787.84 753.04 734.88 741.28 707.2 754.88 787.52 806.56 795.68 765.76 766.24 734.08 758.4 785.84 806.08 812.4 781.28 717.52 743.92 747.92 709.76 741.44 759.84 805.76 787.2 739.04 702 704.24 691.04 687.12 673.12 711.84 719.68 707.2 741.36 720.48 703.36 711.28 690.96 674.88 660.08 684.16 660.4 660.08 663.2 662.48 679.12 686.56 674.56 686.56 713.6 726.4 722 726.32 701.44 680.32 654.48 641.28 644.08 652.08 656 654.96 703.44 676.48 686.64 676.08 675.04 636.16 607.84 629.84 638.96 606.48 590.8 576.88 562.88 560.8 550.08 565.52 565.44 611.36 616.24 575.92 546.96 582.32 611.2 612.4 611.04 626.72 652.72 691.44 716.4 669.36 702 658.72 701.36 702.8 675.52 695.76 687.76 643.76 632.56 672.72 698.88 754.56 738.56 724.88 692.08 722.16 691.68 652.96 643.44 670.72 637.76 666 623.36 588 560.8 555.68 594.64 581.84 544.24 496.56 494 538.32 548.32 544.72 559.92 554.08 575.36 629.84 666.56 614.56 572.32 537.44 541.68 546.08 512.48 503.12 463.36 498.16 486.24 486.72
-2147483647 -2147483647 -2147483647 -2147483647 -2147483647 -2147483647 -2147483647 -2147483647 -2147483647 -2147483647 -2147483647 -2147483647 -2147483647 -2147483647 -2147483647 -2147483647 -2147483647 -2147483647 -2147483647 -2147483647 -2147483647 -2147483647 -2147483647 -2147483647 -2147483647 -2147483647 -2147483647 -2147483647 -2147483647 -2147483647 -2147483647 -2147483647 -2147483647 -2147483647 -2147483647 -2147483647 -2147483647 -2147483647 -2147483647 -2147483647 -2147483647 -2147483647 -2147483647 -2147483647 -2147483647 -2147483647 -2147483647 3.92 4.72 23.92 58.48 95.76 135.92 196.56 288.4 159.12 154.88 305.92 161.92 303.12 403.04 316.96 234.72 289.2 220.32 200.88 187.92 399.2 509.76 466.72 447.28 241.36 433.6 446.16 771.52 701.28 441.84 460.72 519.84 576.08 516.8 386.32 383.44 411.04 465.76 681.04 528.56 531.76 679.04 879.92 775.92 690.56 712.8 823.84 962.88 1087.84 1078.56 851.92 821.12 949.76 906.56 1096.8 1344.8 1595.12 1603.12 1547.52 1539.2 1491.76 1609.28 1561.44 1579.12 1468.56 1217.68 1229.28 1038.16 1535.44 1331.2 1153.76 1770.56 1822.48 1813.04 1699.44 1572.88 1512.4 1381.04 1409.76 1597.84 1587.92 1249.92 1000.56 959.92 949.04 931.2 909.44 886.72 878.08 865.68 861.92 862.16 864.32 845.12 872.4 885.68 827.76 848.24 845.52 862.96 888.88 851.6 839.04 810.4 793.92 785.6 800.96 832.88 826.96 866.32 909.84 1002 950.32 872.64 789.28 777.28 957.28 873.36 879.2 838.32 852.48 862.72 847.68 826.4 807.2 794.8 786.4 751.84 760.32 812.08 824.88 812.88 779.36 805.04 822.88 848.48 852.4 870.16 854.48 819.68 809.36 755.12 773.04 805.28 813.04 821.04 805.28 834.08 860.88 845.2 811.6 796 803.28 783.2 767.68 805.68 819.44 816.64 794.24 772.96 756.48 763.36 720.64 739.6 756.48 789.36 810.32 781.2 778.64 748.96 735.28 771.2 795.2 810.72 761.52 739.44 763.04 757.28 721.68 785.92 783.04 826.08 770.88 736.88 720.16 691.2 697.52 763.68 742.4 687.84 685.36 716 736.96 720.96 694.16 672.64 673.2 668.96 683.84 685.04 664.32 678.64 691.12 702.16 668.64 667.36 676.48 673.92 696.96 710.8 708.8 727.04 715.6 673.6 656.8 654.8 626.96 657.36 630.24 662.16 691.2 666.88 638.8 641.44 660.8 638.64 610 606.48 632.72 613.6 620.16 626 602.24 580.8 560.56 534.56 568.64 577.12 589.04 563.92 550.24 594.64 629.44 655.44 623.2 634.16 658.56 650.64 706.08 698.56 680.8 685.36 712.24 719.12 735.28 726.56 680.48 650.08 679.44 675.84 667.84 722.88 709.52 684.08 666.16 686.88 689.76 649.44 614.96 615.92 599.68 632.8 615.12 614.24 577.2 575.04 547.6 527.36 520.16 539.12 499.12 483.68 492.4 508.8 531.2 561.76 579.04 621.28 666.96 611.92 580.72 596.32 569.44 541.52 533.84 498.88 500.96 474.08 457.2 476.96
-2147483647 -2147483647 -2147483647 -2147483647 -2147483647 -2147483647 -2147483647 -2147483647 -2147483647 -2147483647 -2147483647 -2147483647 -2147483647 -2147483647 -2147483647 -2147483647 -2147483647 -2147483647 -2147483647 -2147483647 -2147483647 -2147483647 -2147483647 -2147483647 -2147483647 -2147483647 -2147483647 -2147483647 -2147483647 -2147483647 -2147483647 -2147483647 -2147483647 -2147483647 -2147483647 -2147483647 -2147483647 -2147483647 -2147483647 -2147483647 -2147483647 -2147483647 -2147483647 -2147483647 -2147483647 -2147483647 -2147483647 3.6 8.24 17.2 51.36 123.84 109.2 202.8 264.24 222.08 153.44 173.92 204.24 199.52 327.04 312.24 168.56 207.04 123.6 223.2 184.32 365.52 445.12 338.72 417.28 291.6 369.6 729.68 736.16 454.96 509.76 485.44 551.36 452 380.72 496.48 438.4 535.52 485.6 528.96 521.76 503.52 572.16 711.44 852 816.56 859.36 894.24 930.48 1096.16 1280.64 912.48 869.2 1029.44 1384.24 1548.48 1711.68 1607.36 1597.44 1525.68 1520.32 1671.12 2009.6 1938.64 1941.2 1644.24 958.4 1024.16 926.64 1160.56 1019.68 1567.84 1708.56 1873.6 1827.68 1656.16 1550.56 1513.12 1443.6 1450.08 1496.16 1386.16 1080.8 948.4 924.56 931.52 907.76 929.52 914.48 897.2 873.84 885.76 886.96 866.96 833.28 858.64 828.08 885.36 880 900.56 867.68 894.4 886.96 854.72 844 836.96 785.28 826.56 822.16 845.68 865.6 856.4 870.56 924.24 1015.68 796.4 777.92 914.32 952 858.48 835.6 828.8 852.56 845.28 814.64 797.28 768.56 744.48 759.36 797.68 794.32 813.76 802.64 791.52 779.68 797.84 817.36 824.32 857.76 849.52 827.36 819.28 784.16 761.28 765.2 808.32 835.28 829.52 835.04 861.76 849.36 832.8 810.64 800.8 800.48 776.56 794.88 824.56 794.88 767.44 761.2 775.28 805.04 771.36 726.8 746.56 752.72 800.64 809.12 785.92 774.08 746.4 779.68 790.48 788.96 783.92 775.44 769.12 734.72 738.72 764.8 798.56 795.2 776.56 746.8 719.2 726.72 732.4 742.16 736.64 702.96 740.88 694.56 726.24 737.76 699.28 697.6 673.28 693.76 698.24 686.16 649.36 726.8 703.84 710 676.64 689.44 699.2 678.32 686.4 689.68 717.36 737.92 726 694.64 674.08 651.44 647.12 630.72 626.08 654 689.2 716.96 691.04 624.4 637.6 644.24 602.56 599.28 633.92 655.36 646.32 618.48 603.76 580.4 576.96 536.56 532.32 571.28 574.56 542.8 555.36 584.32 623.84 607.52 593.28 632.56 619.28 637.84 709.28 712.16 685.12 716 722.8 767.44 735.2 710.08 672.64 659.28 682.96 712.64 715.52 745.76 753.36 701.44 655.44 643.28 635.52 622.64 620 633.2 613.92 614.88 587.12 620.72 606.72 647.28 645.12 591.36 572.88 587.76 517.52 486.24 504.08 552.08 565.2 585.76 588 608.08 651.04 663.36 643.28 618.72 608.48 578.72 528.56 529.76 557.68 544.72 488.16 442.96
-2147483647 -2147483647 -2147483647 -2147483647 -2147483647 -2147483647 -2147483647 -2147483647 -2147483647 -2147483647 -2147483647 -2147483647 -2147483647 -2147483647 -2147483647 -2147483647 -2147483647 -2147483647 -2147483647 -2147483647 -2147483647 -2147483647 -2147483647 -2147483647 -2147483647 -2147483647 -2147483647 -2147483647 -2147483647 -2147483647 -2147483647 -2147483647 -2147483647 -2147483647 -2147483647 -2147483647 -2147483647 -2147483647 -2147483647 -2147483647 -2147483647 -2147483647 -2147483647 -2147483647 -2147483647 -2147483647 -2147483647 -2147483647 3.6 17.04 120.24 210.4 76.08 105.36 138.32 198.24 151.2 137.6 121.84 86.24 338 261.12 209.84 168.8 154 209.12 194.32 395.12 294.88 329.6 242.32 227.92 206.56 481.76 685.12 351.92 437.6 559.12 648.08 1110.8 832.8 520.64 459.44 589.28 487.68 443.52 494.56 541.52 403.92 787.68 658.16 553.2 860.4 979.76 1280.24 1391.12 1003.92 852.24 952.88 1014.72 1488.16 1705.36 1357.36 1463.52 1540.16 1539.52 1484 1576.48 1747.44 1794.24 1789.84 1509.2 871.68 864.64 932.88 938.56 825.04 886.88 1027.28 1357.2 1602.72 1667.92 1466.16 1390.48 1857.04 1672.8 1591.04 1252.24 1129.04 951.36 934.64 919.12 887.84 907.36 911.52 905.36 891.52 892.72 889.68 863.6 832 873.92 865.28 862.24 891.44 915.68 888.64 911.52 902.08 864.24 851.84 827.28 804.48 842.48 841.84 838.24 865.04 874.88 852.24 868.56 919.36 838.48 762.64 801.92 975.68 835.12 804.64 821.04 847.2 833.36 806 771.76 764 772.64 800.56 780.64 816.4 845.76 838.64 814.4 813.92 799.28 809.6 846.4 860.4 838.4 809.52 805.68 805.36 768.24 762.08 776.96 816 849.12 834.88 863.68 863.52 817.12 802.16 831.36 798.48 819.28 831.2 833.2 789.12 787.92 792.64 801.2 808.32 774.08 737.04 758.08 782.64 775.84 824.16 794.8 768.32 743.12 756.8 768.72 770.4 781.44 793.2 771.04 753.92 760.56 806.48 810.24 767.76 729.76 712.48 700.96 712.88 750.24 713.52 708.72 684.4 723.36 716.56 708.08 746.64 723.92 686.24 694.64 713.2 692.4 672 660.88 695.92 703.6 708.56 682.48 695.28 709.36 691.52 680.48 688.64 706.56 713.6 717.28 775.44 687.68 648.4 635.28 624.64 616.8 644.8 663.52 712.32 632.16 614.24 626 632.56 601.2 593.2 616.08 633.2 666.56 653.76 618.08 588.48 570.48 577.28 556.4 536.72 531.52 540.4 584.88 603.28 586 569.52 594.8 617.2 605.76 662.08 662.16 708.96 708.48 755.68 748.8 784.4 773.6 706.64 684.64 686.08 670.48 713.36 749.68 772.64 734.24 693.36 658.4 694.24 650.64 666.32 668.48 669.44 627.12 643.12 583.44 627.28 665.2 726.08 683.36 618.56 580.16 552.56 501.68 508.8 541.12 526.08 524.24 539.68 562.64 613.84 602.08 658.08 646.16 599.12 581.76 589.92 578 618.56 618.56 539.2 476.64 433.52
-2147483647 -2147483647 -2147483647 -2147483647 -2147483647 -2147483647 -2147483647 -2147483647 -2147483647 -2147483647 -2147483647 -2147483647 -2147483647 -2147483647 -2147483647 -2147483647 -2147483647 -2147483647 -2147483647 -2147483647 -2147483647 -2147483647 -2147483647 -2147483647 -2147483647 -2147483647 -2147483647 -2147483647 -2147483647 -2147483647 -2147483647 -2147483647 -2147483647 -2147483647 -2147483647 -2147483647 -2147483647 -2147483647 -2147483647 -2147483647 -2147483647 -2147483647 -2147483647 -2147483647 -2147483647 -2147483647 -2147483647 -2147483647 -2147483647 23.84 171.6 196.16 66.08 57.84 81.36 103.28 182.4 112 85.68 50.08 222.64 149.28 210.08 99.52 216.8 259.44 138.24 205.2 284.32 289.6 189.04 322.4 180.4 114.88 346.64 433.52 410.48 589.6 649.76 1245.04 917.52 572.08 554.72 699.36 589.52 470.64 540.4 625.2 246.08 465.76 469.52 346.64 498.96 847.84 1124.88 1384.4 969.52 864.64 889.84 948.32 1059.52 1230.08 1180.88 1298 1578.16 1546.56 1649.92 1526.88 1472.48 1224.32 1174 985.92 805.12 835.76 873.04 830.88 805.6 826.24 846.56 935.12 998.32 1236.56 1268.56 1110.32 1793.84 1776.48 1522.16 1153.12 1014.96 1009.52 1010.72 952.4 905.2 878.64 875.2 881.76 876.72 852.08 852.08 850 864.16 910.48 892.64 865.84 858.88 892.16 909.76 884.8 870.08 851.84 828.72 850.32 819.76 834.08 865.6 858.8 877.76 862.24 838.8 823.6 877.28 878.96 783.04 785.6 852.48 820.4 817.2 830.24 850.88 873.28 843.52 778.88 790.16 804.48 819.36 793.68 782.64 812.48 814.16 828.8 838.48 848 821.44 848.96 867.28 837.68 844.96 846.88 818.56 766.72 794.72 815.84 809.44 855.76 857.6 870.64 865.36 846.8 816.88 840.48 809.68 836.32 848.96 809.6 821.2 834.88 829.12 815.2 790.96 731.6 786 808.8 800.64 795.2 811.52 787.6 768.8 773.6 755.92 800.8 796.16 794.24 801.68 798.96 757.12 797.52 838.08 805.12 736.32 754.08 722.24 723.76 742.8 744 718.88 690.4 715.84 704.32 748.48 734.24 732.56 727.12 724.48 728.08 703.68 687.12 668.24 655.84 701.84 711.52 712.88 698.72 688.64 702.24 707.76 695.76 704.08 715.12 678 690.56 756.8 657.28 640.24 671.12 639.92 615.12 614.64 612.32 608.48 606.56 594.16 592.48 587.12 578.48 609.36 649.76 658.88 665.92 630.88 606.24 614.48 601.04 615.28 571.84 542.16 524.72 558.72 584.48 566.64 548.96 565.92 566.96 587.04 611.44 621.2 671.84 702.96 742.08 763.92 745.28 773.52 787.6 741.68 735.2 680.72 696.56 689.6 724 767.52 764.4 703.84 686.48 700.56 670 674 674.64 663.68 656.8 662.24 594.64 642.48 690.24 738.72 650.8 615.04 565.6 520.08 481.04 509.04 516.8 519.6 554.24 544.56 561.84 573.52 606.64 652.4 603.28 632.24 575.92 539.84 577.6 609.76 563.68 529.76 486.08 425.04
-2147483647 -2147483647 -2147483647 -2147483647 -2147483647 -2147483647 -2147483647 -2147483647 -2147483647 -2147483647 -2147483647 -2147483647 -2147483647 -2147483647 -2147483647 -2147483647 -2147483647 -2147483647 -2147483647 -2147483647 -2147483647 -2147483647 -2147483647 -2147483647 -2147483647 -2147483647 -2147483647 -2147483647 -2147483647 -2147483647 -2147483647 -2147483647 -2147483647 -2147483647 -2147483647 -2147483647 -2147483647 -2147483647 -2147483647 -2147483647 -2147483647 -2147483647 -2147483647 -2147483647 -2147483647 -2147483647 -2147483647 -2147483647 -2147483647 46.32 76.8 32.4 38.72 33.76 52 54.16 149.04 123.6 77.76 29.28 32.56 160.88 190.8 143.28 169.76 142.32 324.8 425.04 219.68 234.64 194.88 312.32 237.6 135.84 146.88 769.52 525.76 565.76 510.56 923.84 1097.92 598.32 587.52 1409.52 1497.36 508.48 568.08 881.84 349.12 222.88 300.72 278.72 286.24 607.68 1263.68 1480.8 965.2 897.52 838.8 988.72 1034.32 1176.96 1181.2 1265.12 1493.92 1562.64 1476.08 1393.6 1377.52 1370.16 1083.2 1111.6 778 787.68 803.12 769.52 847.36 955.28 950.64 930.16 862.32 1021.2 993.52 1140.24 1301.84 1289.2 1399.44 1034.88 970 1040.8 973.12 979.44 925.28 892.64 894.08 884.8 853.44 858.16 874.64 901.92 878 908.08 891.52 874.24 866.64 888.32 918.8 893.36 878.32 859.36 832.08 855.12 838.8 878.64 864.08 871.52 891.44 867.52 858.16 831.04 811.2 876.48 778.32 803.2 789.2 871.44 875.28 868.24 855.28 825.12 805.12 768.24 803.6 806.4 840.56 829.04 814.64 794.64 829.36 824.72 837.52 859.68 874.24 861.92 884.4 858.08 877.84 838.4 806.48 768.88 818.32 860.72 841.52 870.56 890.24 891.6 892.96 856 828.72 850.32 821.12 857.12 868.8 817.68 840.16 861.68 806.24 776 758.64 750.88 746.64 727.2 749.44 792.32 826.72 814.88 798.8 775.76 761.12 787.36 791.68 813.12 839.2 813.2 770.96 795.52 817.28 784.32 792 762.8 761.84 762.32 735.52 712.16 698.88 691.2 708.24 715.84 736.72 759.6 755.2 754.64 753.04 732.4 723.6 703.92 676.48 679.28 705.2 725.52 730.32 716.4 703.6 702.48 727.28 711.6 722.8 711.12 676.16 665.36 651.84 646.4 670.48 697.44 653.68 632.56 621.76 623.28 621.04 662.24 638.8 625.68 592.48 583.68 618.88 644.88 638 676.72 648.96 649.12 670 630.96 632.72 604.56 568.24 538.24 516.72 529.52 536.64 542.4 551.36 578.4 591.84 611.44 636.96 670.32 665.28 726.16 748.4 723.04 743.2 791.6 792.96 738.88 703.52 739.04 714.56 749.44 760.24 758.8 720.96 723.92 680.8 633.44 625.92 659.44 631.76 617.44 653.2 578.56 657.76 633.68 703.36 688.56 604.08 564.16 552.08 494.48 483.12 476.88 526.8 560.96 583.92 622.88 623.68 660.4 651.36 604.32 587.76 571.44 521.12 525.76 554.48 562.32 491.28 459.2 450.88
-2147483647 -2147483647 -2147483647 -2147483647 -2147483647 -2147483647 -2147483647 -2147483647 -2147483647 -2147483647 -2147483647 -2147483647 -2147483647 -2147483647 -2147483647 -2147483647 -2147483647 -2147483647 -2147483647 -2147483647 -2147483647 -2147483647 -2147483647 -2147483647 -2147483647 -2147483647 -2147483647 -2147483647 -2147483647 -2147483647 -2147483647 -2147483647 -2147483647 -2147483647 -2147483647 -2147483647 -2147483647 -2147483647 -2147483647 -2147483647 -2147483647 -2147483647 -2147483647 -2147483647 -2147483647 -2147483647 -2147483647 -2147483647 -2147483647 27.28 -2147483647 9.12 8.48 12.88 24 21.36 54.32 65.68 65.68 47.12 16.32 42.8 52.32 187.92 59.92 74.32 384.96 638.48 294.24 181.28 224.8 272.48 228.32 149.84 147.84 311.84 1031.76 1191.28 720.8 857.68 1111.6 989.52 1085.68 1674.72 1408.16 629.44 597.68 735.92 694.96 228.08 278.08 251.44 245.04 528.72 1092.56 1616.8 994.88 654.48 681.68 698.64 711.04 1151.6 1265.44 1264.08 1347.76 1479.84 1583.12 1343.44 1437.92 1469.44 1034.16 864.88 776 749.36 769.28 786.4 892.64 920.24 983.28 914.16 862.64 917.76 966.96 988.72 1173.52 1383.6 1578.48 1046.4 1014.72 996.16 934.48 947.76 939.12 934.72 924 890.88 856.32 885.92 900.88 886.16 898.8 915.12 878.48 903.52 876 875.92 901.76 927.76 888.08 870.08 831.2 867.2 847.68 876.96 917.6 899.52 887.2 854 855.92 834.88 824 935.28 817.68 834.88 814.88 799.76 935.2 1074.72 859.6 836.08 803.68 779.6 825.44 834.32 825.76 853.68 833.76 815.2 854 865.68 863.12 881.68 902.24 852.8 825.44 815.12 826.48 788.4 777.52 820.96 830.4 847.44 822.8 833.6 873.76 898.88 898.32 880.96 862.4 888.8 864.64 864.8 890.4 844.48 855.68 851.36 795.92 776 759.68 784.16 780.08 762.48 733.28 738.24 785.44 822.4 822.88 787.36 778.64 765.6 785.6 816.32 849.04 829.52 808.48 790.88 827.84 795.84 819.68 803.92 789.76 753.28 736.96 718.16 697.12 705.52 716.56 704.72 704 731.28 777.84 764.56 732.72 709.52 702.16 696.96 678.32 685.84 709.84 735.6 740.08 732.48 714.88 717.84 731.68 731.6 750.72 733.84 688.4 692.08 681.84 659.44 690.4 668.56 650.32 659.76 649.12 654.24 690.24 672.48 634.56 646.24 598.56 571.6 600.64 620.16 630.72 655.2 678.32 682.8 634.4 602.56 589.12 582.88 580.32 538.96 516 540.48 578.96 579.28 584.24 598.24 616.56 622.72 660.08 637.12 669.36 737.44 766.64 745.36 712 754.4 778 788.32 753.92 757.12 752.16 790.48 745.76 709.44 692.32 670.32 663.04 674.4 632.8 597.52 601.68 591.04 577.52 564.4 581.68 597.6 721.84 678.32 635.2 575.36 532.48 550.32 498.88 478.88 502.88 551.04 587.44 594.8 589.44 618.32 646 603.44 568.08 536.96 519.6 496.08 534.08 571.28 489.92 453.92 429.12
-2147483647 -2147483647 -2147483647 -2147483647 -2147483647 -2147483647 -2147483647 -2147483647 -2147483647 -2147483647 -2147483647 -2147483647 -2147483647 -2147483647 -2147483647 -2147483647 -2147483647 -2147483647 -2147483647 -2147483647 -2147483647 -2147483647 -2147483647 -2147483647 -2147483647 -2147483647 -2147483647 -2147483647 -2147483647 -2147483647 -2147483647 -2147483647 -2147483647 -2147483647 -2147483647 -2147483647 -2147483647 -2147483647 -2147483647 -2147483647 -2147483647 -2147483647 -2147483647 -2147483647 -2147483647 -2147483647 -2147483647 -2147483647 -2147483647 -2147483647 -2147483647 -2147483647 -2147483647 7.52 6.48 8.72 9.52 13.92 33.44 24.96 20.48 33.44 53.04 55.2 50.16 71.84 232.4 252.8 126.64 263.2 263.52 181.92 256.72 245.76 157.84 181.92 521.76 1122.48 881.6 687.2 740.8 649.52 1516.24 1843.84 1567.04 1394.32 801.76 788.08 940.32 248.16 231.52 254.24 230 455.76 670.8 1094 514.72 261.04 324 305.28 217.84 805.04 1235.52 1219.2 1312.96 1358.96 1400.48 1459.84 1175.68 1291.92 809.76 717.76 656.88 712.32 739.52 774.4 858.88 862.8 868.4 824.16 857.52 897.92 886.56 999.84 1008.96 1080 1038 1128.96 1138.56 1146 1029.04 1031.36 1020.72 944.8 915.68 880.72 878.32 868.72 914 911.44 901.04 933.68 895.68 927.76 919.76 891.84 898.4 928.24 919.52 874.08 847.84 857.36 867.44 879.84 919.12 937.68 907.04 886 846 834.16 834.08 880.32 796.08 803.6 834.96 818.48 825.36 923.92 843.28 816.72 791.52 789.04 834.24 850 861.36 864.8 834.08 830.72 874.08 874.64 886.88 896 884.24 874.64 838.4 828.24 789.84 778.32 779.36 784.24 804.24 802.8 834.4 858 870.24 852.24 850.8 861.36 894.64 883.36 853.76 880.4 895.76 881.28 876.96 855.36 792.8 764.88 775.04 811.28 819.04 784.96 773.28 734.08 784.8 800.48 823.84 797.68 821.2 787.68 777.52 786.96 824.8 849.76 850.32 820.16 903.04 803.12 846.88 811.2 776.72 775.76 766.64 753.52 695.2 734.24 730.24 722.64 726.88 709.6 757.12 779.2 737.68 731.6 719.92 699.04 679.68 713.28 710.08 743.12 724.4 710.32 710 707.68 721.04 746.8 741.2 718.72 717.04 723.36 696.72 675.68 704.64 672.32 702.64 682.96 676.32 698.32 663.52 629.84 615.12 601.28 604.56 577.36 580.48 605.76 609.52 624.24 660.4 686.16 617.92 592.4 564.72 542.64 535.2 508.4 522.4 555.84 554.56 582.08 611.12 614.16 645.76 645.76 608.56 622.24 660.08 730.88 748.64 737.2 712.16 721.6 754.08 783.28 784.96 795.68 759.76 768.16 768.88 727.28 689.2 716.32 680.56 643.28 630.48 612.8 606.08 572.56 652 675.44 573.6 550.96 607.92 646 594.48 617.52 609.84 562.88 500.96 477.68 510.88 515.44 561.44 549.12 576.48 627.92 676.24 658.24 598 589.44 540.32 508 477.84 484.08 508 504.32 483.36
-2147483647 -2147483647 -2147483647 -2147483647 -2147483647 -2147483647 -2147483647 -2147483647 -2147483647 -2147483647 -2147483647 -2147483647 -2147483647 -2147483647 -2147483647 -2147483647 -2147483647 -2147483647 -2147483647 -2147483647 -2147483647 -2147483647 -2147483647 -2147483647 -2147483647 -2147483647 -2147483647 -2147483647 -2147483647 -2147483647 -2147483647 -2147483647 -2147483647 -2147483647 -2147483647 -2147483647 -2147483647 -2147483647 -2147483647 -2147483647 -2147483647 -2147483647 -2147483647 -2147483647 -2147483647 -2147483647 -2147483647 -2147483647 -2147483647 -2147483647 -2147483647 -2147483647 -2147483647 -2147483647 6.4 6.72 5.2 10.72 6.88 17.36 51.2 55.76 34.4 47.92 56.8 84.4 83.28 58.8 64.48 181.92 182.64 309.44 271.84 487.36 421.6 169.12 319.28 747.92 539.68 341.28 343.04 916.8 1432.48 1508.08 1747.6 1524.08 1122.72 828.16 1159.36 347.92 260.4 283.44 219.84 450.56 916.32 640.96 594.72 394.32 320.96 265.76 179.68 607.76 1027.6 1259.2 1160 1228.48 1334.64 1231.68 1008.32 638.08 729.6 608.64 676.08 788 873.44 756.48 785.52 821.28 814.88 881.36 862.96 861.44 932.48 1001.44 1085.52 1037.44 1054.24 989.2 1004.32 1181.04 1124.08 957.52 952.24 921.52 919.12 888.64 917.68 865.44 888.8 913.68 910.32 917.2 924.8 912.96 945.2 916.8 916.88 921.68 893.28 863.52 847.92 865.92 902.16 882.16 913.52 959.12 982.08 908.64 877.2 867.84 817.52 792.08 821.92 844.48 854.72 862.88 871.52 872.4 836.16 797.12 770.08 800.08 836.72 857.6 866.56 873.76 865.28 866.32 878.4 902.56 892 862.8 836.96 838.72 822.88 805.2 789.04 813.68 842.08 820.64 793.28 789.84 795.76 807.84 836.24 830.4 824.72 861.84 877.12 869.36 834.56 859.68 880.24 900.88 859.28 814.88 813.92 780.64 826.32 797.44 848.4 818.56 791.44 739.6 786.8 837.44 840.32 835.36 845.04 791.92 790.32 833.92 836.72 857.52 881.36 906.48 919.04 835.44 860.4 779.44 748.8 728.8 722 708.16 699.28 726.08 738.4 727.2 747.04 715.2 759.52 768.64 722.64 717.2 704.32 694.88 664.72 698.24 715.2 728.88 721.12 699.84 688.88 714.24 739.12 741.84 728.64 707.2 697.84 703.68 719.28 702.96 734.64 721.44 720.72 689.36 684.96 679.76 632.96 624.08 613.92 602.32 608.48 599.44 571.36 585.6 598.56 606.32 660.88 662.56 663.6 628 592.56 579.44 565.76 524.16 500.72 515.04 543.12 554.96 575.36 576.4 590.16 601.2 594.32 618.88 648.4 711.36 733.28 761.6 720.24 705.52 733.04 747.52 781.76 751.68 729.84 770 784.24 731.6 731.36 752.24 728.64 693.44 669.6 630.08 610.88 606.16 648.96 684.96 603.44 556.56 581.12 614 561.2 596.72 617.68 562.08 496.32 485.44 543.2 542.8 537.6 565.12 574 610.72 653.92 675.2 611.76 573.04 586.72 556.4 532.88 484.32 463.68 446.8 446.32
-2147483647 -2147483647 -2147483647 -2147483647 -2147483647 -2147483647 -2147483647 -2147483647 -2147483647 -2147483647 -2147483647 -2147483647 -2147483647 -2147483647 -2147483647 -2147483647 -2147483647 -2147483647 -2147483647 -2147483647 -2147483647 -2147483647 -2147483647 -2147483647 -2147483647 -2147483647 -2147483647 -2147483647 -2147483647 -2147483647 -2147483647 -2147483647 -2147483647 -2147483647 -2147483647 -2147483647 -2147483647 -2147483647 -2147483647 -2147483647 -2147483647 -2147483647 -2147483647 -2147483647 -2147483647 -2147483647 -2147483647 -2147483647 -2147483647 -2147483647 -2147483647 -2147483647 -2147483647 -2147483647 -2147483647 1.2 5.84 8.24 -2147483647 7.68 42.72 25.6 40.8 50.96 65.92 58.16 80.48 50.16 66.32 160.56 296.24 292.56 342.32 659.12 477.68 192.16 255.12 213.76 202.56 268.56 633.84 1230.88 1490.08 901.44 942.24 1072.16 1346.96 823.84 911.36 499.2 245.52 271.36 201.12 318.4 269.84 464.64 312.32 301.6 168.24 174.24 199.76 528.16 1290 1211.84 1081.84 1053.12 1284.16 1152.08 998.24 649.6 501.12 443.36 588.88 712.88 755.12 853.6 837.52 891.12 863.44 919.76 978.96 877.04 869.44 972.08 979.84 1020.64 1075.2 1008.08 965.2 975.68 954.64 950.48 930 925.68 890.24 899.84 922 880.56 897.52 901.04 927.92 948.08 944.4 916.96 949.6 939.04 947.44 906.32 862.64 853.04 888.16 864.8 906.96 934.16 913.44 944.48 952 913.84 860.56 826.96 830.48 837.92 821.44 793.2 836.96 884.24 901.12 858.48 821.6 791.04 833.6 794.56 800.4 802.48 831.52 853.76 875.36 887.92 921.6 892.8 881.04 855.76 826.32 801.84 793.28 784.56 778 798.56 823.6 862.72 852.08 829.2 800.4 784.24 783.28 794.32 819.12 843.76 835.12 856.08 830.8 838.96 866.32 908.32 896.16 851.04 822.72 797.44 820.96 812.08 842.8 840.56 818.4 754.24 796.88 843.52 804.88 820.48 846.88 805.12 790.16 826.08 825.76 846.88 868.48 908.32 821.76 791.28 798.24 746.8 721.28 757.12 741.36 754.56 729.76 739.12 738.8 752.08 739.36 725.84 768.08 771.44 739.6 704.16 682.48 664.16 684.96 710.56 720 742.72 712.96 703.68 685.6 718.96 711.12 726.72 709.52 712 683.04 703.76 740.32 767.12 791.28 744.88 695.28 697.28 662.72 640.8 626.16 647.52 644.96 635.68 644.4 614.56 562.8 569.28 587.28 637.92 639.84 651.76 677.2 618.8 583.76 563.36 542.48 532.64 498.72 521.04 520.8 530.32 541.28 547.2 560.4 580.8 584.96 603.04 661.12 704.64 708.08 721.12 722.48 692.64 715.92 745.12 772.32 725.84 718.48 754.24 810.72 782.48 769.68 845.84 838.8 734.64 678.4 652.32 638.72 629.04 635.52 647.04 663.12 588.88 536.4 581.04 540.64 584.4 566.88 555.92 492.8 483.44 502.88 525.28 536.88 587.6 585.12 589.44 626.64 681.28 645.76 640.64 608.72 559.04 501.68 495.12 538.4 551.44 472.72
-2147483647 -2147483647 -2147483647 -2147483647 -2147483647 -2147483647 -2147483647 -2147483647 -2147483647 -2147483647 -2147483647 -2147483647 -2147483647 -2147483647 -2147483647 -2147483647 -2147483647 -2147483647 -2147483647 -2147483647 -2147483647 -2147483647 -2147483647 -2147483647 -2147483647 -2147483647 -2147483647 -2147483647 -2147483647 -2147483647 -2147483647 -2147483647 -2147483647 -2147483647 -2147483647 -2147483647 -2147483647 -2147483647 -2147483647 -2147483647 -2147483647 -2147483647 -2147483647 -2147483647 -2147483647 -2147483647 -2147483647 -2147483647 -2147483647 -2147483647 -2147483647 -2147483647 -2147483647 -2147483647 -2147483647 -2147483647 3.92 6 -2147483647 10.96 12.88 14.88 33.76 42.08 27.12 52.24 89.44 56.96 34.88 253.04 335.44 394.72 460.72 647.84 603.92 337.12 181.2 204.96 366.56 776.24 722.48 877.12 993.84 830.4 806.4 814.08 1218.08 848.48 620.32 319.12 375.28 317.52 404.8 198.88 331.92 483.12 328.72 168.24 168.72 321.68 824.8 1149.68 1335.92 1044.24 770.24 708.24 1131.12 925.36 1031.76 684.24 621.04 420.96 699.12 732 750.96 803.2 851.92 933.52 945.84 952.48 985.12 857.36 910 847.92 888.48 965.6 1042.48 1040.16 971.68 937.2 924.64 919.76 907.6 900.72 897.84 932.32 918.64 886.24 901.6 906.4 907.84 958.8 959.84 920.56 951.04 974.08 924.16 894.08 855.36 879.2 896.88 894.64 889.04 927.28 971.12 946.24 902.08 898.96 844.24 884.32 877.12 850.32 818.16 822.08 847.28 839.44 873.52 876.72 844.08 798.8 853.44 819.92 805.76 812.96 805.12 821.52 842.32 864 898.4 900.8 863.04 822.72 818.88 802.16 823.52 828.8 835.6 803.52 821.6 857.92 867.36 843.12 804 806.8 806.56 825.44 798.4 787.76 818.4 821.92 835.84 855.76 878.4 868.48 883.52 865.36 848.8 801.04 837.84 868 849.6 835.28 800.08 776 773.12 773.04 784.4 808.08 861.92 810.08 810 794.24 823.36 834.24 896.64 827.84 822.4 800.48 781.68 751.84 738.72 784.64 784.8 765.92 744.48 778.8 761.04 756.72 732.08 755.76 778.88 751.28 714.32 703.68 681.04 688 713.52 723.04 738.16 739.2 706.24 686.24 687.36 692 704.24 712.08 716.24 687.44 680.88 707.68 728.32 761.28 766.72 744.16 744.08 734.64 686.88 640.8 661.76 663.12 637.44 617.6 609.44 613.36 588.56 565.68 569.52 625.44 605.6 653.28 649.2 579.04 587.36 569.12 556.72 505.2 501.92 534.88 540.08 560.96 583.28 600 598.56 625.84 631.52 612.24 630 706.4 714.16 692.48 714 703.92 696.24 724.4 741.28 704.88 708.64 746.56 792.08 779.12 820.64 858.64 874.4 762.8 688.72 661.76 674.48 671.36 672.08 654.8 646 573.2 637.04 527.12 524.64 550 545.68 540.56 483.44 481.36 526.72 560.72 561.52 557.12 594.32 612.88 651.28 653.12 679.68 631.2 592.56 547.12 527.76 552.16 582.8 533.36 517.2
-2147483647 -2147483647 -2147483647 -2147483647 -2147483647 -2147483647 -2147483647 -2147483647 -2147483647 -2147483647 -2147483647 -2147483647 -2147483647 -2147483647 -2147483647 -2147483647 -2147483647 -2147483647 -2147483647 -2147483647 -2147483647 -2147483647 -2147483647 -2147483647 -2147483647 -2147483647 -2147483647 -2147483647 -2147483647 -2147483647 -2147483647 -2147483647 -2147483647 -2147483647 -2147483647 -2147483647 -2147483647 -2147483647 -2147483647 -2147483647 -2147483647 -2147483647 -2147483647 -2147483647 -2147483647 -2147483647 -2147483647 -2147483647 -2147483647 -2147483647 -2147483647 -2147483647 -2147483647 -2147483647 -2147483647 -2147483647 -2147483647 -2147483647 -2147483647 6.88 16.96 12.56 26.56 20.24 21.68 41.04 72.32 40.4 74.24 488.64 466.8 590.56 594.32 643.04 497.12 253.92 227.68 370.48 630.08 817.12 660.96 558.4 725.12 790.96 817.6 836.64 836 795.92 516.96 269.04 323.92 332.72 289.84 248.64 447.52 247.68 213.04 145.44 169.92 211.68 613.92 1299.04 1301.28 563.92 239.12 447.44 836.08 590 901.28 760.72 525.12 691.68 867.84 861.36 878.96 842.48 831.2 860.08 900.08 946 833.12 872.56 995.28 887.6 863.12 904.48 946.8 1005.6 968.88 938.16 969.52 955.6 939.44 908.56 915.2 946 938.64 905.76 889.28 932.32 931.12 953.04 976.24 960.64 964.32 963.28 927.12 871.12 882.88 886.4 908.72 930.4 922.48 928.4 972.88 919.44 894.16 890.08 928.24 898.32 899.68 854.48 838.88 808.16 853.92 876.16 883.44 845.76 822.72 792.88 827.84 854.88 831.84 826.08 837.76 823.92 834.16 853.36 883.68 878.96 853.12 846.96 842.8 824.08 817.2 876.96 855.52 812.08 849.44 875.04 825.44 820.8 830.48 834.56 796.72 826.96 856.88 830.4 803.2 799.68 806.96 834.4 840.16 845.68 881.52 892.32 880.72 824.32 834.88 877.52 874.08 851.44 838.4 790.64 760.88 800.96 769.36 793.84 839.76 854.72 840.24 823.84 862.56 853.12 926.24 817.92 773.44 919.44 825.04 750.32 758.08 801.12 814.16 791.28 887.84 861.2 808.24 779.04 752.72 757.92 789.12 762.16 730.72 709.68 680.16 710.8 737.92 716.24 737.2 717.44 702.96 696.64 688.72 700.64 719.92 692.56 706 691.12 676.16 705.92 727.92 749.28 725.76 764.16 740.96 722 710.16 675.76 693.84 647.28 617.92 628.88 629.68 597.92 600.56 601.04 556.32 596.88 605.6 650.48 625.28 576.24 540.56 524.24 539.6 494.8 513.84 539.76 548.4 581.2 605.52 619.6 626.96 601.36 608.24 584.96 618.32 655.2 703.12 703.36 682 679.04 731.36 727.36 751.84 716.16 696 711.04 759.28 759.28 764.08 772.4 810.32 769.76 711.76 712.8 671.84 644.4 634.48 624.64 601.36 595.84 611.2 562.08 536.4 498.88 493.84 488 472.24 472.88 499.68 547.36 575.36 576.4 587.36 630.32 647.28 616.56 674.64 654.16 606.56 577.76 605.28 628.16 616.48 574.4 599.76
-2147483647 -2147483647 -2147483647 -2147483647 -2147483647 -2147483647 -2147483647 -2147483647 -2147483647 -2147483647 -2147483647 -2147483647 -2147483647 -2147483647 -2147483647 -2147483647 -2147483647 -2147483647 -2147483647 -2147483647 -2147483647 -2147483647 -2147483647 -2147483647 -2147483647 -2147483647 -2147483647 -2147483647 -2147483647 -2147483647 -2147483647 -2147483647 -2147483647 -2147483647 -2147483647 -2147483647 -2147483647 -2147483647 -2147483647 -2147483647 -2147483647 -2147483647 -2147483647 -2147483647 -2147483647 -2147483647 -2147483647 -2147483647 -2147483647 -2147483647 -2147483647 -2147483647 -2147483647 -2147483647 -2147483647 -2147483647 -2147483647 -2147483647 -2147483647 -2147483647 4.32 16.8 16.32 27.04 43.6 38.8 60.08 14.24 46.88 449.04 894.72 828.08 662.32 370.72 292.96 252.56 248.72 218.72 450.72 300.4 334.64 420.8 909.6 776.64 722.16 747.76 781.2 689.04 489.92 278.08 312.56 273.52 247.44 200.4 291.76 168.08 142.8 137.84 169.28 193.12 307.76 1156.96 1315.92 866.64 282.24 504.8 493.12 533.44 780.56 826.72 605.36 811.12 797.36 848.8 930.08 760.24 736.72 732.8 783.76 913.92 797.92 868 893.04 989.76 899.76 918.56 1016.32 1005.12 960.8 951.36 971.84 965.52 933.84 926.08 939.44 949.44 948.32 922.72 884.48 915.84 942.48 961.92 985.84 999.76 969.92 897.28 892.8 871.2 916.88 918.08 906 958.4 979.36 963.84 924.48 899.76 900.24 921.76 949.04 927.92 885.6 852.24 817.04 823.36 856.72 889.28 872 846.08 829.28 784.24 799.44 843.36 872.56 865.36 856.48 861.52 838.56 869.76 905.04 892.56 860.64 885.92 865.92 830.32 809.44 854.72 840.72 824.32 864.88 865.12 826.56 850.96 851.92 831.52 839.92 805.92 868.56 871.36 837.92 842.88 808.96 805.36 822.72 848.64 860.64 897.12 902.64 843.12 830.24 888.16 843.84 815.84 801.04 778.56 774.08 816.64 793.2 796.88 836.48 832.4 849.04 861.28 884.56 925.36 930 793.36 815.28 897.52 793.6 772.48 766.4 804.16 844.08 864.4 921.12 933.6 856.08 804.8 762.56 774.72 790.72 764.64 735.84 706.08 677.68 707.84 748.88 738.24 747.76 716.8 701.28 689.6 683.36 695.36 700 679.76 709.44 703.36 669.6 695.6 735.04 704.56 727.52 754.16 739.92 712.48 692.24 681.84 692.88 651.44 653.36 665.28 630.48 628.24 626.56 610.64 566.96 576.4 622.32 616 565.92 598.48 563.2 533.52 517.52 488.4 538.96 583.68 595.28 607.44 609.36 576 584.8 571.52 585.12 579.44 585.6 601.04 656.48 687.2 683.2 687.2 709.6 728.24 746 713.52 676.96 691.44 724.64 753.76 745.92 777.92 777.52 690.96 664.56 639.76 633.04 609.44 604.48 577.2 586 587.12 530.4 518.56 509.12 498.72 504.88 543.76 530.64 481.52 487.6 540.72 525.52 539.52 569.12 607.84 587.44 586.48 631.92 670.08 651.12 624.4 669.84 677.76 625.28 562.4 542
-2147483647 -2147483647 -2147483647 -2147483647 -2147483647 -2147483647 -2147483647 -2147483647 -2147483647 -2147483647 -2147483647 -2147483647 -2147483647 -2147483647 -2147483647 -2147483647 -2147483647 -2147483647 -2147483647 -2147483647 -2147483647 -2147483647 -2147483647 -2147483647 -2147483647 -2147483647 -2147483647 -2147483647 -2147483647 -2147483647 -2147483647 -2147483647 -2147483647 -2147483647 -2147483647 -2147483647 -2147483647 -2147483647 -2147483647 -2147483647 -2147483647 -2147483647 -2147483647 -2147483647 -2147483647 -2147483647 -2147483647 -2147483647 -2147483647 -2147483647 -2147483647 -2147483647 -2147483647 -2147483647 -2147483647 -2147483647 -2147483647 -2147483647 -2147483647 -2147483647 -2147483647 -2147483647 11.76 27.36 36.08 39.36 30.56 6.88 21.2 185.68 920.72 721.52 352.8 194.08 280.8 470.4 563.6 433.04 211.44 255.04 264.64 475.36 668.16 740.8 722.56 768.16 812.16 825.6 381.6 296.72 340.8 208.48 258.96 191.68 153.84 139.92 145.28 148.16 184.48 289.12 638.64 1127.68 890.08 349.36 238 229.84 267.84 583.92 768 747.36 496.64 677.68 730.24 809.2 830.24 668.32 583.36 667.92 801.12 839.92 784.8 829.84 895.28 888.96 933.68 916.96 946.64 969.6 985.52 971.6 937.36 922 908.56 906.24 954.88 941.36 926.48 915.44 907.2 901.44 947.36 982.4 989.28 988.32 918.96 909.68 929.04 887.92 910 970.08 916.88 939.84 978.72 994.8 960.96 918 957.6 990.08 1004.48 962.08 877.44 821.92 839.2 844.56 874.4 907.12 885.76 862.88 830.88 804.4 789.36 811.52 849.92 885.2 873.44 891.76 865.52 883.92 918.4 901.6 886.88 922.88 889.84 840.88 810.48 863.92 830 839.28 866.24 879.12 842.48 867.92 861.76 859.84 860.64 809.92 841.76 871.68 848 843.52 794.32 851.84 855.6 826.4 844.8 880.88 911.68 871.36 838 894.4 852.72 827.84 805.36 793.84 772.32 868.48 841.76 795.68 832.32 853.76 856.88 884.48 912.56 933.84 917.28 822.08 890.24 947.84 805.6 801.36 778.8 820.32 863.2 942.24 901.6 826.88 804.24 774.64 769.12 767.52 782 755.44 710.88 708.72 685.28 730.72 730.72 739.52 726.24 710.48 711.6 702.64 692.4 664.96 678.48 671.84 685.6 702.08 678.88 680.64 703.6 705.76 724.16 730.32 707.92 698.96 695.52 677.28 671.36 681.44 689.92 688.48 650.8 648 619.84 584.96 559.12 592.32 622.48 588.32 537.2 580.8 583.2 555.6 524.88 484.48 521.84 590.64 580.96 612.56 578.24 549.44 584.16 548.16 601.68 544.16 586 619.44 634.56 607.76 632.8 734 675.44 694.32 693.12 725.76 672.8 683.68 699.44 727.92 803.44 869.44 803.76 724.8 708.4 683.76 654.32 625.44 590.4 561.84 551.92 552 582.88 561.44 532.88 545.44 587.76 556.56 543.44 488.96 495.52 492.16 507.6 519.6 540.88 560 583.12 608.32 618.24 644.24 683.2 653.04 647.68 669.28 599.36 558.64 522.32
-2147483647 -2147483647 -2147483647 -2147483647 -2147483647 -2147483647 -2147483647 -2147483647 -2147483647 -2147483647 -2147483647 -2147483647 -2147483647 -2147483647 -2147483647 -2147483647 -2147483647 -2147483647 -2147483647 -2147483647 -2147483647 -2147483647 -2147483647 -2147483647 -2147483647 -2147483647 -2147483647 -2147483647 -2147483647 -2147483647 -2147483647 -2147483647 -2147483647 -2147483647 -2147483647 -2147483647 -2147483647 -2147483647 -2147483647 -2147483647 -2147483647 -2147483647 -2147483647 -2147483647 -2147483647 -2147483647 -2147483647 -2147483647 -2147483647 -2147483647 -2147483647 -2147483647 -2147483647 -2147483647 -2147483647 -2147483647 -2147483647 -2147483647 -2147483647 -2147483647 -2147483647 -2147483647 -2147483647 0.16 3.76 3.84 19.84 8.32 10.72 126.72 108 114.08 88.32 256.8 574.24 540.64 429.44 305.04 289.52 389.36 761.76 592.96 727.04 843.2 861.36 981.28 946.08 931.52 582.64 247.52 388.64 275.28 232.88 336.56 193.2 133.28 142 160.4 180.56 604.08 1265.84 938.56 348.32 248.8 226 249.12 341.2 641.2 450.08 474.8 346.08 724.24 755.04 598 638.64 682.56 807.52 778.16 651.68 742.96 763.76 811.52 831.36 864.72 910.32 941.84 963.04 981.92 980.24 964.96 946.56 951.68 932.4 916.88 950.08 968.32 938.08 930.32 932.32 891.36 919.6 939.76 959.28 994.08 942.48 948.8 946.4 888.24 902.88 1008.08 956 977.92 971.6 960.88 933.44 914.08 954.8 1025.68 1029.36 988.08 922.88 840.32 838.88 868.8 883.76 906.96 868.56 837.28 845.84 847.28 788 791.84 803.44 860 935.44 938.24 916.24 916.96 970.72 929.44 892.88 914.56 870.24 816.24 852.08 913.04 855.12 841.76 879.12 906.96 864.56 872.64 894 869.76 841.76 826 852 875.76 869.12 850.8 802.64 836.32 873.2 870.8 870.48 861.84 903.44 901.92 876.16 904.88 885.52 854.32 835.04 806.32 771.12 815.6 834.88 837.36 794.88 811.36 830.8 847.52 876.32 996 931.84 840.56 956.96 942.56 831.6 832.32 816.88 870.72 1059.92 938.4 884.32 816.24 792.24 768.64 838.24 843.68 819.84 768.16 721.2 695.52 715.68 753.36 751.36 739.68 711.04 697.52 689.36 680.64 685.12 688.16 663.12 652 664.88 704.48 699.36 672.96 715.84 682.64 699.6 692.32 674.32 693.76 697.44 689.28 679.84 669.44 662.64 678 675.92 632 602.88 613.04 558.16 553.6 558.8 557.84 520.64 557.6 577.68 537.76 517.68 484.72 512.96 533.36 550.8 620.64 607.2 552.16 524.72 559.44 564.08 536.08 607.52 601.6 589.68 579.6 628.48 670.16 667.12 702.64 664.72 686.48 646.48 662.32 685.2 704.56 788.32 776.8 704.24 678.16 690 665.52 637.2 627.28 578 612 589.84 627.44 630.72 606.16 578.16 573.68 607.76 594.64 550.8 480.56 475.12 499.36 505.52 538.88 567.68 600.4 632.4 657.04 641.68 652.08 635.68 617.92 596.56 640.64 633.76 588.32 591.68
-2147483647 -2147483647 -2147483647 -2147483647 -2147483647 -2147483647 -2147483647 -2147483647 -2147483647 -2147483647 -2147483647 -2147483647 -2147483647 -2147483647 -2147483647 -2147483647 -2147483647 -2147483647 -2147483647 -2147483647 -2147483647 -2147483647 -2147483647 -2147483647 -2147483647 -2147483647 -2147483647 -2147483647 -2147483647 -2147483647 -2147483647 -2147483647 -2147483647 -2147483647 -2147483647 -2147483647 -2147483647 -2147483647 -2147483647 -2147483647 -2147483647 -2147483647 -2147483647 -2147483647 -2147483647 -2147483647 -2147483647 -2147483647 -2147483647 -2147483647 -2147483647 -2147483647 -2147483647 -2147483647 -2147483647 -2147483647 -2147483647 -2147483647 -2147483647 -2147483647 -2147483647 -2147483647 -2147483647 -2147483647 1.92 7.12 5.12 10.64 8.48 10.96 42.16 63.92 91.2 656.88 847.44 483.04 361.2 270.32 241.44 241.12 676.16 616.96 697.12 1008.4 1194.88 1186.24 1360.08 1021.04 776.32 251.6 291.52 244.16 243.04 259.52 182.16 194.96 126.56 156.4 165.76 230.8 475.68 405.84 295.52 334.96 284.16 258.16 269.84 286.4 310 414.64 322.08 823.84 777.76 492.64 783.92 869.28 932 900 761.44 794.32 773.68 801.76 843.52 844.08 836.88 895.6 938.88 999.84 988.56 991.2 984 960.48 953.28 928.48 938.08 976.24 950.16 953.76 933.44 917.28 895.84 936.64 957.28 965.6 977.12 990.96 961.28 908 889.52 958.4 1009.52 992.8 958.08 924.24 910.4 937.6 973.12 998.56 1020.64 1013.52 927.76 871.2 848.8 870 912.48 881.52 861.76 874.4 886.88 848.24 816.64 834.64 821.44 822.32 949.12 988.32 1044.88 1032.32 1011.6 935.44 920.72 910.32 854.64 869.76 905.92 929.52 897.92 890.16 876.48 892.08 864.8 884.4 903.76 890.4 873.04 830.8 851.52 902.08 889.52 857.92 827.76 804.32 856.16 880.96 876.88 888.16 897.92 909.44 924.4 869.04 836.72 813.68 802.64 791.36 769.04 805.12 812.16 847.28 801.68 810.16 824.64 838.88 914.32 1029.44 918.24 881.68 1000.56 1000.4 1024 978.56 953.84 1050.96 898.72 918.16 927.6 876.24 803.12 805.76 835.12 823.84 814.48 774.88 733.36 698.96 734.96 753.76 786.08 753.84 719.44 701.28 688.32 696 683.04 673.28 685.68 684.32 655.92 666.4 691.28 675.76 664.32 670.08 703.84 670.32 660.08 669.92 682.88 713.6 709.68 686.4 667.2 662.96 677.84 646.32 621.6 620.24 583.84 571.2 556.24 541.44 504.96 525.92 561.84 553.12 525.76 486 507.92 551.52 595.92 612.4 567.84 578.72 515.04 534.72 517.76 537.92 602.4 615.76 580 564.08 615.2 666.08 677.44 654.96 677.52 648.08 653.44 687.28 734.4 759.12 815.52 761.52 689.44 648.96 632.56 629.84 608.96 598.48 626.88 653.36 640.72 664.72 673.76 642.48 620 611.44 620.72 594.32 545.92 496.72 472.08 527.44 536.08 530.72 576.96 595.6 612.24 638.16 615.36 604.16 588.88 572 568.56 618.24 649.12 664.8 688.16
-2147483647 -2147483647 -2147483647 -2147483647 -2147483647 -2147483647 -2147483647 -2147483647 -2147483647 -2147483647 -2147483647 -2147483647 -2147483647 -2147483647 -2147483647 -2147483647 -2147483647 -2147483647 -2147483647 -2147483647 -2147483647 -2147483647 -2147483647 -2147483647 -2147483647 -2147483647 -2147483647 -2147483647 -2147483647 -2147483647 -2147483647 -2147483647 -2147483647 -2147483647 -2147483647 -2147483647 -2147483647 -2147483647 -2147483647 -2147483647 -2147483647 -2147483647 -2147483647 -2147483647 -2147483647 -2147483647 -2147483647 -2147483647 -2147483647 -2147483647 -2147483647 -2147483647 -2147483647 -2147483647 -2147483647 -2147483647 -2147483647 -2147483647 -2147483647 -2147483647 -2147483647 -2147483647 -2147483647 -2147483647 -2147483647 -2147483647 6.56 9.12 4.64 10.64 20.8 17.44 131.76 696.4 575.6 329.28 354.64 339.52 443.12 218.64 398.56 683.92 915.44 762.72 1013.92 1428.24 1813.36 1281.6 808.24 382.24 245.12 213.36 300.16 542 304.96 156.64 135.52 141.04 161.28 201.12 579.12 302.48 259.36 260.08 267.68 243.84 296.48 343.76 252.16 298 310.64 663.68 628.48 544.64 634.24 812.72 913.28 859.04 838.8 810.48 800.56 850.56 869.36 882.96 895.52 889.92 936.8 971.36 953.04 950.72 983.84 986 961.52 948.64 948.32 975.2 973.12 964.08 941.6 906.24 904 927.28 936.96 955.2 987.04 1007.36 948 926.72 899.44 969.12 1004.48 976.8 955.84 942.24 936.08 924.32 973.04 988.08 953.44 935.68 963.36 884.96 875.52 858 902.32 929.12 913.28 924.48 892 882.32 831.2 859.12 850.56 824.56 942.8 993.76 1027.84 1054.24 1085.6 1056 1015.92 973.76 948.24 912.16 958 934.4 923.6 989.28 933.76 896.48 902 889.84 920.64 911.44 880.88 842.8 843.04 870.4 878.4 865.2 842.8 809.28 821.04 831.68 858.56 893.92 881.52 880.72 919.6 895.52 862.88 845.84 809.12 806 777.28 778.56 820.16 849.52 800.64 807.52 813.92 844.48 954 1067.76 900.16 932.96 981.6 996.32 981.84 954.24 929.2 904 880.32 943.12 899.68 881.44 831.76 875.68 809.76 790.72 790.64 775.68 717.44 703.92 747.76 781.92 826.64 749.2 719.28 701.04 715.76 697.12 694.24 705.2 714.4 725.6 695.44 660 662.88 680.4 659.84 682.8 692.48 658.8 652.96 650.48 673.44 702.88 706.56 716.4 678.48 649.28 672.72 659.6 663.2 659.12 632.08 584 626.88 577.36 519.2 514.64 567.76 545.92 510.56 489.76 503.52 521.84 570.08 552.88 536.16 579.92 545.12 498.4 517.28 587.52 616.56 587.52 557.52 569.52 631.6 658.16 625.28 651.44 638.96 649.6 672 707.2 820.24 805.52 720.96 684.24 665.52 671.68 655.68 654 635.28 627.52 679.6 687.68 662.32 620.56 613.6 583.84 547.28 565.6 550 564.8 541.2 482.32 473.52 527.76 579.6 533.44 554.48 561.76 601.36 637.04 630.16 568.96 571.44 523.12 552.88 599.84 549.04 609.52 599.44
-2147483647 -2147483647 -2147483647 -2147483647 -2147483647 -2147483647 -2147483647 -2147483647 -2147483647 -2147483647 -2147483647 -2147483647 -2147483647 -2147483647 -2147483647 -2147483647 -2147483647 -2147483647 -2147483647 -2147483647 -2147483647 -2147483647 -2147483647 -2147483647 -2147483647 -2147483647 -2147483647 -2147483647 -2147483647 -2147483647 -2147483647 -2147483647 -2147483647 -2147483647 -2147483647 -2147483647 -2147483647 -2147483647 -2147483647 -2147483647 -2147483647 -2147483647 -2147483647 -2147483647 -2147483647 -2147483647 -2147483647 -2147483647 -2147483647 -2147483647 -2147483647 -2147483647 -2147483647 -2147483647 -2147483647 -2147483647 -2147483647 -2147483647 -2147483647 -2147483647 -2147483647 -2147483647 -2147483647 -2147483647 -2147483647 -2147483647 10.64 10.88 -2147483647 -2147483647 7.12 12.32 178.88 853.04 488.24 482.64 493.68 668.8 689.2 433.2 336.16 767.84 946 771.6 1003.84 1730.24 1931.68 1643.2 1417.36 304.16 246.4 218.56 281.44 589.76 333.36 134.72 254 192.56 314.16 206.4 264.88 212.64 233.28 225.52 214.48 203.92 244.56 359.2 427.44 590.72 464 356.64 599.44 739.68 632.4 847.2 799.76 777.28 800.64 791.52 779.36 788.88 789.04 810.24 904.48 971.76 958.24 920.08 923.52 927.84 969.92 994.64 965.12 970.4 985.2 984.88 967.36 954.96 930.24 918.32 907.76 924.64 967.2 966 1024.56 1031.28 976.8 951.12 944.72 938.88 1007.44 1012.96 989.76 972.96 955.84 916.72 942.24 967.6 934.64 909.2 900.4 900 943.2 899.68 881.6 899.44 966.8 964.96 892.16 884.32 885.04 961.2 902.56 858.4 925.92 973.2 971.84 988.4 1024.8 1065.92 1093.2 1006.88 1044.88 1016.48 920 1012.56 957.28 996.88 1000.16 946.16 910.4 943.44 911.76 942.8 915.84 880.16 845.12 863.68 893.6 868.32 862.8 825.28 863.76 856.08 817.12 833.92 841.12 927.12 918.8 888.88 856.64 850 830.72 801.2 784.16 807.2 814.8 850.88 814.72 811.6 839.76 860.96 985.36 1090.56 927.52 969.44 958.16 963.52 918.32 903.76 858.88 857.52 869.44 955.84 863.2 856.88 875.92 845.2 806.96 763.6 787.92 777.6 743.36 707.84 742.88 848.96 806 750.88 728 710.4 726.24 717.28 722.88 723.52 732 738.48 700.16 676.48 646.72 642.96 634.88 644.88 661.92 652.8 631.68 645.44 667.2 670.96 681.12 703.44 685.28 661.76 647.92 692.08 714.56 721.92 670.24 601.6 648.72 623.04 504.24 510.32 516.72 544.8 533.28 492.64 494.24 484.08 542 504.96 524 578.64 534.48 489.44 537.2 610.32 584 558.72 537.2 601.36 690.96 691.92 619.84 623.28 616.56 666.16 679.44 698.08 814.64 785.36 743.68 728.4 721.84 707.6 666.8 639.76 663.68 688.4 707.04 672.88 653.52 629.92 578.72 561.36 643.04 592.64 512.48 508.72 511.6 469.52 520.96 562.24 558.96 585.36 595.52 590.16 650.16 641.28 604.88 576.48 517.04 508.64 527.28 575.12 508.96 512.72 490.96
