NCOLS 403
NROWS 32
XLLCORNER 0.20826125
YLLCORNER 8.8333058
CELLSIZE 0.04166665 
NODATA_value -2147483647 
189.12 173.76 144.76 124.04 116.2 125.72 144.84 149.44 156.72 149.16 152.24 161.32 146.04 152.92 155.76 159 159.96 190.96 205.88 189.4 217.2 219.68 299.92 392.44 358.8 325 319.04 333.08 355 348.4 358.32 464.28 433 397.96 414.32 444.32 420.56 400.32 426.08 413.92 411.44 425.84 420.64 398.08 374.04 352.96 362.64 374.68 388.92 397.36 383.08 376.32 395.12 377.6 373.64 355.44 375.76 380.8 378.2 356.28 339.04 335.44 351.8 374.48 342.92 313.84 335.48 343.72 336.52 359.44 355.92 383.52 374.48 356.96 351.72 328.68 319.24 313.08 305 312.04 319.12 320.08 314.4 289.52 292.96 302.12 278.6 271.36 291.56 288.2 303.4 275.16 257.12 254.88 267.76 263.6 245.84 222.04 202.08 195.92 185.92 168.28 155 139.56 161.64 167.32 178.8 213.36 231.56 223.8 239.88 233 246.8 293.96 291.56 311.32 328.04 318.92 282.8 303 302.8 280.96 309.12 329.92 293.12 300.12 329.12 275.64 198.12 220.36 232.76 266.48 234.24 213.76 226.28 242.84 274.44 252.6 236.08 215 226.8 245.56 255.52 273.48 292.76 268.76 253.8 277.92 331.04 372.44 344.92 309.64 270.72 295.8 302.44 283 304.48 345.92 374.16 389.6 389.84 409.72 437.52 442.16 483.24 478.04 502.16 505.12 588.56 592.04 531.48 544.64 523.08 533.8 542.44 563.72 588.36 604.56 623.36 632.52 630.72 649.24 677.2 694.56 734.76 726.56 707.44 712.28 752.04 749.04 744 727.2 725.36 744.96 738.6 802.64 746.96 752.68 765.88 779.44 785.28 787.6 804.44 833.36 891.68 907.8 891.92 914.28 989.12 930.72 857.04 834.68 861.76 845.56 897.32 1017.2 1009.88 781.08 722.76 702.6 664.76 639.4 663 680.84 628 633.12 611.96 581.84 577.32 604.08 572.44 605.4 571.56 547.72 531.16 507.24 488.72 512.6 543.8 549.76 475.48 428.48 459.08 463.44 449.32 429.36 401.68 378.4 362.64 316.36 297.92 321.72 334.16 340.44 362.4 374.56 394.32 432.04 427.04 428.96 492.64 601.76 508.56 440.6 415.4 382.76 358.44 337.48 320.08 305.36 289.8 285.8 288.08 280.2 283.68 266.08 271.52 248.2 218.56 302.36 341.88 285.76 258.52 221.6 220.72 310.24 447.48 619.6 624.44 599.48 586.64 621.52 598.8 557.72 504.36 508.12 493.16 481.72 498.64 545.16 590.68 563.72 535.76 506.32 562 679.24 556.68 562.48 592.92 504.4 535.76 592.88 692.96 917.16 837.32 815.32 928.12 970.84 922.36 860.28 859.36 817.4 648.52 569.08 516.28 502.92 491.2 466.68 522.16 443.88 423.8 407.56 407.12 415.92 430.56 438.84 411.4 401.96 423.92 420.52 403.04 380.76 385.52 377.8 395.56 401.04 383.12 370.24 362.76 351.44 346.48 344.84 342.04 337.16 337.88 337.12 334.92 336.8 334.84 329.12 326.92 324.12 326.64 327.68 328 328.12 327.32 330.08 330.48 331.52 332.64 332.92 334.64 334.72 335.4 336.28 336.72 336.6 336.2 335.84 336.76 336.72 336.6 334.72 335.32 335.12 336.24 336.68 336.36 335.68 335.56 335 335.72 334.64 333.68 336.44 337.4 338.04 339.12 338.8 339.72 340.76 341.32
169.24 180.28 149.52 118.04 129.04 141.48 137.64 156.88 172.24 174.08 167.44 184.44 183.12 160.44 183.76 183.24 157.76 173.6 172.68 189.28 202.36 200.84 289.72 385.52 308.84 291.24 302.56 314.64 329.28 342.24 378.2 456.84 385.96 402.6 421.76 438.72 422.04 410.52 432.84 426.68 428.64 408.28 398.36 387.36 391.28 374.32 385.84 398.08 397.24 383.8 368 370.52 376.6 360.36 361.68 345.44 365.28 377.6 384.76 360.08 355.72 359.84 371.36 353.96 325.36 327.6 344.92 363.68 354.36 385.4 390.56 389.12 376.04 366.84 337.68 334.56 343.48 341.36 323.28 311.12 296.12 297.52 317.72 292.64 278.2 287.16 272.32 266.56 274.04 292.16 300.12 278.76 273 277.8 266.88 243.36 230.36 216.12 203.88 198.48 175.92 160.6 146.6 139.04 150.92 150.84 176.4 197.28 221.68 257.72 225.04 235.68 267.04 293.6 311.84 291.4 314.28 288.84 274.4 266.36 267.4 297 320.24 324.56 298.52 273.96 283.84 283.76 205 212.24 210.12 238.4 233.24 204.64 205.88 231.12 249.72 245.64 225.76 214.68 232.12 266.88 283.8 253.88 236.24 229.24 238.16 282.44 311.52 341.32 301.24 292.44 265.12 297.56 277.96 280.44 300.48 312.4 351.32 393 378.44 391.2 398.68 412.4 419.6 429.56 449.2 497.08 541.12 544.64 505.32 516.44 509.64 539.36 569 609.84 606.68 610.44 624.28 650.48 651.76 682.84 704.16 719.48 753.92 749.96 743.44 732.36 777.28 779.2 762.32 750.12 720.28 733.68 731.8 927.68 770.12 778.28 790.84 791.6 795.16 820.48 835.56 893.16 1040.88 1095.72 1060.32 988 1034.72 891.84 856.48 851.4 877.88 883.68 880.64 919.04 876.96 751.12 744.52 708 690.28 662.88 704.04 619.28 599.24 621.68 634.96 610 593.72 572.32 547 556.68 553.12 549.04 525.72 501.32 502.68 526.16 553.36 537.12 445.12 383.12 381.12 392.96 407.56 417.88 394.84 371.08 350.72 319.4 287.4 303.52 313.96 355.04 388.28 426.28 480.76 463.04 427.72 462.08 548.84 599.32 505.68 457.36 435.16 393.64 374.88 351.6 334.4 315.04 304.96 290.96 265.92 258.88 255.2 231.96 221.92 226.32 211.96 279 318 227.32 215.8 209.2 223.96 320.28 532.04 671.24 652.48 633.56 630.88 647.52 639.76 575.64 573.64 538.64 532.12 521.72 528.84 540.36 533.76 538.4 537.88 497.28 487.72 513.04 503.12 527 533.16 494.4 530.8 574 737.68 951.76 1047.52 984.52 923.24 874.08 845.84 760.04 704.32 765.96 696.56 576.2 549.88 467.32 463.64 471.24 447.92 418.6 404.8 400.24 391.2 415.96 421.84 428.56 406 397.6 404.92 401.08 396.76 378.68 362.04 376.32 389.04 407.84 396.64 382.4 376.36 368 352.6 346.88 346.52 343.76 340.16 339.04 337.12 332.48 332.28 328.08 325.6 324.08 326.76 327.56 328 329.28 329.72 329.36 331.52 332.56 333.36 333.36 334.56 335 335.84 336.96 336.8 336.8 337.28 337.36 337.56 337.2 337.2 335.44 336.2 336.08 336.64 336.8 337.28 336.68 335.88 336.48 335.68 336.24 335.44 337.32 337.96 338.28 338.88 339.68 340.08 340.48 341.36
156.44 157.44 162.84 135.32 114.96 119.92 121.68 138.52 164.76 174.4 190.04 204.44 210.84 197.48 186.76 198.76 186.64 195.68 170.04 173.4 179.76 228.76 305.4 372.68 264.16 274.96 320.24 328.32 331.64 351.32 352.4 366.32 372.4 394.96 414.24 443.92 427.8 426 429.36 410.48 420.68 395.84 382.24 371.36 376 384.6 404.4 393.72 388.92 376.84 367.64 352.08 359.56 351.8 345.16 357.72 388.92 392.4 382.24 366.84 367.2 374.8 372.36 340.44 344.44 358.64 342.04 363.68 385.6 401.08 392.52 372.08 360.16 348.32 354.36 372.04 367.6 347.16 329.64 335.88 311.72 288.28 293.04 280.8 273.84 265.92 262.88 259.56 270.76 286.56 286.12 290.72 297.16 269.64 252 250.64 246.48 241.84 236.04 218.84 179.44 156.84 150.24 154.08 139.56 149.48 173.12 209.84 248.04 233.56 219 245.68 286.96 266.4 289.92 285.04 273.08 267.48 242.48 255.28 282.36 293.44 287.28 295.68 320.08 290.12 262.12 246.72 222.12 194.16 191.24 202.24 186.68 171.4 174.88 208.12 233.56 227.6 219.44 212.76 245.48 263.44 265.2 274.08 233.04 210.96 255.72 305.68 328.76 313.04 292.6 264.84 245.92 264.2 268.88 279.84 292.76 309.88 363.64 421.04 372.28 392.32 384.72 388.2 397.28 410.68 419.36 453.64 472.76 474.24 491.64 497.56 521.4 550.12 576.32 611.6 632.24 636.48 649.08 672.8 672.56 680.84 731.28 737.72 767.04 788.32 793.24 761.76 783.32 806.88 804.72 750.84 722.4 719.64 738.6 806.28 781.4 776.08 770.48 788.84 803.64 819.28 865.28 911.2 1019.68 1160.96 1136.8 1090.84 1071.36 906.8 875.04 882.4 941.4 934.6 918.32 896.16 813.36 782.2 769.92 730.48 727.92 724.96 805.36 639.28 596.4 585.64 605.36 618 587.24 565.44 558 535.64 529.48 535.64 518 498.68 522.28 571.32 584.92 517 423.04 359.96 342.32 322.8 342.88 386.08 364.16 387 346.68 302.96 272.2 294.68 329.88 385.12 432.84 485.6 565.32 592.8 476.64 455.76 514.72 538.24 491.12 459.56 417.2 387.4 383.64 363.76 351.4 342.84 335 298.44 257.52 242.12 240.28 227.8 238.52 222.8 199.12 205.76 202.96 188.92 189.4 194.08 234.12 320.08 497.28 652.84 650.88 676.64 694.24 682.2 679.04 627.48 622.16 586.48 571 542.76 553.36 516.56 499.72 522.68 499.44 483.76 457.92 479.96 482.24 504.08 484.92 486.72 523 613.88 846.12 1073.92 1040.6 873.08 739 762.16 881.88 719.44 637.28 623.96 547.12 656.08 689 489.76 431.68 427.48 409.64 396.68 388.72 378.8 391.72 452.72 434.4 423.92 396.72 383.92 385.76 386.52 391.92 374.88 355.96 363.2 380.72 406.52 402.96 393.12 383.92 375.56 358.04 350 349.28 348.8 346.96 341.88 337.32 333.64 329.2 327.52 324.28 326.08 326.88 327.64 329.88 331.2 331.68 331.08 330.28 332 334 334.72 334.52 336 336 336.56 337.64 337.96 337.84 338.04 338 338.84 337.44 336.64 336.88 336.72 337.2 336.56 337.48 337.56 336.36 336.56 336.6 336.6 336.56 336.12 336 338.44 339.6 339.56 340.04 340.6 341.12
164.76 155.84 149 119.4 117.6 114.6 120.92 131 146.08 163.52 189.08 179.64 190.68 210.08 222.52 218.96 218.32 212.56 188.48 196.08 195.76 203.8 293.92 316 311.16 277.8 332.28 355.24 348.96 366.2 374.92 395.72 388.84 412.72 425.68 439.68 425.52 422.12 412.32 387.44 411.56 404.64 393.24 379.56 361.2 373.36 398.68 389.92 369.6 381.2 375.24 358.36 336.28 348.52 333.56 357.2 385.4 377.44 362.92 357.16 379.92 398.2 386.28 346.68 360.12 382.64 359.4 382.64 411.48 403.24 376.8 359.44 356.88 370.92 380.44 393.08 371.88 341.36 317.72 309.04 296.88 305.4 300.8 286.24 285.24 275.8 272.32 272.84 255.88 261.84 268.04 285 302.12 291.28 280.6 280.16 277.32 278.44 253.8 207.08 175.48 171.08 181.04 162.6 144.08 143.84 183.32 217.96 200 232 261.84 273.32 283.96 251.92 267.12 296.8 253.52 232.12 237.16 243.4 255.52 262.2 275.2 296.96 321.16 295.72 311.6 301.56 295.72 275.36 211.4 173.96 157.88 140.24 154.12 177.04 216.92 212.84 205.68 206.24 230.88 262.96 268.32 279.44 214.92 197.12 321.52 277.52 296.12 287.56 275.96 255.68 248.2 261.8 248.44 258.96 267.64 304.8 343.12 378.32 375.44 389.92 397.76 387.56 444.68 393.4 409.32 420.28 448.88 487.48 551 513.84 524.4 542.08 576.08 608.12 642.52 654.56 667.72 689.84 690.8 723.84 753.96 783.12 788.56 786.36 783.92 779.48 789.68 788.36 800.28 757.68 737.12 736.56 736.84 736.2 742.44 750.68 766.88 787.88 799.88 822.52 925.44 990.08 998.56 1172.16 1167.64 1135.2 1040.56 933.04 951.52 912.6 999.8 936.36 975.6 905.08 850.64 824.24 764.84 745.52 723.72 749.72 772.16 638.04 587.72 576.92 564.28 563.72 568.64 554.76 557.56 554.68 536.36 516.72 504.16 511.2 542.96 595.8 601.28 523.56 428.04 423.64 447.52 403.24 337.4 313.92 325.64 345.6 342.88 297.96 267 295.64 339.92 395.84 455.76 513.6 568.44 570.8 469.88 433.44 458.92 474.52 460.72 440.92 405.48 387.8 355.28 342 346.08 339.48 306.16 277.44 257.36 265.08 266.2 266.2 271.2 223.28 207.28 216.4 195.88 192.44 188.52 197.28 233.36 348.92 479.32 525.76 582.56 635.76 695.56 726.64 706.72 672.36 649.12 591.04 569.76 539.24 491.56 497.76 477.52 515.36 477 468.6 438.88 451.2 459.6 462.88 473.2 507.84 542.44 707.2 757.16 930.92 865.2 817.16 659 622.12 692.64 613 583.96 540.32 547.92 758.16 830.72 589.2 455.4 425.76 398.4 375.8 371.28 368.64 393.36 394.24 417 420.4 404.84 377.96 367.88 377 376.48 370.4 349.72 365.32 385.16 401.04 402.72 385.96 376.2 367.12 357.72 353.12 350.92 350.04 349.68 347.8 342.4 335 326.16 324.64 323.92 328.92 329.76 329.72 330.48 332.32 331.2 332 332.48 333.28 333.52 334.64 334.84 336.32 337 337.32 338.2 338.72 338.48 338.76 339.04 339.16 338.52 337.96 338.04 337.52 337.24 337.12 338.12 338.52 337.12 336.68 336.84 337.36 337.2 337.92 338.24 336.28 337.64 337.92 338.64 339.28 340.36
149.76 151.12 140.64 120.08 124.68 117.6 122.76 131.96 142.48 172.08 170.44 164.68 173.96 185.48 197.08 207.56 218.72 227.76 202.8 224.6 225.84 212.96 300.52 341.04 350.44 292.16 369.12 371.84 359.36 372.52 394.88 423.04 426.96 402.24 423.28 421.16 407.08 404.44 392.48 374.04 388.2 394.96 375.76 376.96 358.92 353.04 385.4 376.56 365.68 366.36 369.44 352.4 329.12 340.6 335.52 353.52 380.32 373.16 345.4 348.24 367.76 387.96 392.48 361.2 382.84 397.28 390.44 409.56 400.04 380 367.28 361.24 396.04 384.6 412.36 391.76 371.52 354.44 336.08 323.12 310.64 324.2 296.28 298.76 303.44 306.44 293.2 277 259.8 250.6 258.48 282.2 305.28 293.16 289.88 282.64 292.24 284.88 248.24 201.76 196.48 192.96 196.96 172.6 144.4 145 205.24 184.4 217.52 278.64 263.72 249.2 266.32 236.64 259.76 255.76 227.68 239.44 241.4 249.56 260.92 273.24 285.4 300 319.76 310.12 310.24 317.12 309.84 287.8 271.36 228 202.12 143.28 136.32 149.72 181 179.92 182.12 206 231.68 265.8 271.08 232.6 178.08 226.24 347.6 253.36 260.04 250.12 256.52 230.92 235.64 244.96 269.08 262.64 271.48 279 315.32 374.84 375.32 392.28 424.16 417.48 468.24 423.08 435.68 494.88 504.2 521.32 581.04 555.16 530 565.4 589.16 632.44 630.44 639.04 649.76 660.44 677.16 710 734.88 767.88 797.16 767.72 761.76 761.04 765.72 762.36 799.92 773.28 750.72 762.08 766.76 741.36 753.76 762.16 777.88 789.28 814.12 850.16 884.8 979 1085.64 1186.16 1206.56 1147.28 1144.4 1031.88 962.04 1074.08 1075.28 942.08 1112.56 1110.36 872.92 791.08 785.56 783.08 673.88 720.8 669.32 613.52 596.16 576.24 566.64 554.28 545.44 538.52 532.64 536.44 535.68 510.32 523.08 535.48 578.68 664.52 605.72 516.92 505.2 513.96 509.64 447.8 409 347.96 302.12 294.76 312.64 302.4 270.48 306.08 342.92 400.04 465.64 525.4 586.2 522.96 435.48 418.32 426.64 436.08 437.04 411.04 393.56 370.96 347.52 332.24 319.96 308.68 284.48 278 277.32 297.08 313.2 289.08 256.2 238.48 234 248.44 229.36 206 181.88 208.36 256.56 359.4 543.8 556.96 597.36 647.68 684.36 663.52 651.8 641.68 602.12 539.88 535.44 512.76 500.32 456.52 451.4 492.56 464.28 449.2 418.56 434.72 458.76 484.76 494.84 509.84 541.76 628.72 588.92 577.92 584.72 682.68 734.6 712.64 640.24 517.92 563.4 484.04 612.72 755.68 671.48 511.32 448.6 404.04 394.84 368.72 355.24 357.4 369.8 384.88 405.32 398.44 386.24 378.16 357 365.64 360.08 350.96 345.44 373.68 389.96 410.16 409.16 389.64 384.36 363.6 355.92 353.36 352.96 352.6 350.32 347.08 343.36 338.04 326.84 324.48 324.96 329.88 332.08 332.84 334.6 333.92 334.04 333.64 334.36 333.56 333.6 333.72 335.32 336.28 337.72 338.56 338.72 339.12 339.44 339.6 339.96 340.04 339.44 339.2 339.44 338.96 337.92 338.4 338.64 338.56 338.56 337.04 336.92 337.48 337.96 337.92 338.36 338.64 338.96 339.44 339.72 339.28 340.4
160 143.8 133.36 118.96 132.8 141.24 131.16 123.08 130.6 152.04 157.8 174.8 191.48 188.92 173.84 188.84 198.88 233.8 227.44 246.16 254.84 295.76 408.76 408.68 403.16 327.04 403.6 399.08 369.28 370.52 389.52 412.72 432.4 423.2 419.2 400.72 390.6 383.48 383.04 377.56 364.88 384.6 376.6 364.6 352.72 345.6 369.24 387.64 367.12 350.4 348.24 340.04 322.96 331.44 329.88 353.4 373.68 351 336.28 350.68 369.68 394.36 405.28 396.24 405 417.24 421.64 399.88 386.8 392.72 387.36 378.12 411.96 421.52 433.04 421.52 420.36 390.04 358.16 346.6 334.6 321.92 295.56 321.76 317.8 304.6 287.2 267.36 266.92 248.64 259.24 271.8 280.36 279.64 262.08 276.48 266.24 271.08 249.44 232.76 225.04 232.48 202.4 167.08 145.84 145.92 168.28 169.44 227.08 245.36 233.44 218.96 218.36 213.68 223.8 227.92 239.36 255.68 266.24 263.04 283.88 265.36 272.04 294.72 312.68 288.56 283.48 278.92 276.6 272.36 257.04 229.4 203.36 168.32 133.4 134.8 139.4 156.24 179.72 216.72 247.08 260.92 220.56 202.28 155.56 208.92 272.2 208.4 223.36 241.68 238.04 235.08 237.84 248.6 258.8 274.8 291.32 320.32 375.04 372.68 376.32 396.64 410.56 445.56 492.28 506.48 499.8 548.48 573.8 564.64 587.36 588.32 536.88 552.16 586.88 616.72 625.96 662.08 680.48 668.52 696.28 714.08 732.76 767.04 788.6 747.32 744.2 736.92 749.12 748.16 778.16 780.52 757.84 789.52 788.44 747.48 752.64 769.96 795.84 808.36 833 906.88 938.64 1038.36 1151.12 1212.48 1268 1177.44 1182.76 1258.92 1255.24 1409.08 1413.88 998.32 1182.16 1244.16 848.28 826.4 862.04 832.8 736.64 696.4 645.16 622.28 596.12 599.76 599.44 579.4 554.2 541.32 536.08 532.28 515.88 522 540.36 566.56 598.2 659.16 582.68 561.6 586.76 558.6 511.92 471 428 387.84 345 292.84 277.8 294.56 269.4 289.36 343.96 410.88 466.44 527.92 563.08 468.84 416.52 392.68 395.68 426.6 425.88 400.96 392.24 393.4 388.84 406.28 391.72 323.24 310.52 338.88 298.12 346.16 437.28 387.88 337.24 465.68 350.04 297 272.2 207.84 179.92 211.48 286.84 453.8 599.6 594.24 645.52 650.84 658.92 607.08 575.48 623.12 585.6 536.04 484.64 447.52 476.64 448.96 415.56 479.12 469 427.32 414.24 453.48 485.48 524.08 576.72 595.96 585 568.2 519.12 520.12 571.08 627.48 656.24 671.12 653.48 480.48 477.04 453.12 532.6 559.24 507.52 465.24 420.48 395.32 373.64 352.84 338.72 354.24 379.68 395.8 392.28 370.6 365.72 370.44 347.92 354.92 339.52 341.72 359.64 369.04 374.32 389.12 398.08 385.48 365.36 355 349.88 350.68 348 343.6 338.52 339.28 339 340.08 328.72 324.04 330.28 329.16 330.56 334.92 335.84 335.8 335.44 334.6 334.88 334.16 334.88 335.2 335.32 336.48 337.52 338.76 339.48 340.2 341.12 340.96 340.8 340.92 340.76 340.48 341.32 340.44 339.56 339.52 340.16 340.04 338.48 337.28 337.76 337.84 337.76 337.64 338.8 339.4 339.52 339.76 340.32 340.84 341.32
147.12 149.84 128.24 114.92 128.6 141.56 151.12 132.48 130.28 141.64 142.12 145.88 171.32 155.08 151.8 167.04 175.48 201.44 214.6 251.76 318.12 442.68 427.12 433.56 348.96 369.28 455.56 423 385.92 390.16 400.4 430.04 464.08 438.8 413.68 401.68 400.52 406.52 411.12 390.4 363.52 353.52 358.36 349.96 351.72 338.36 355.32 367.8 372.36 364.68 358.32 339.08 321.2 311.96 324.72 351.4 362.6 337.56 343.6 361.04 370.96 401.32 384.48 400.16 398.52 403.04 412.72 417.24 422.96 428.92 390.76 397.56 403.44 445.8 464.6 438.32 412.92 386.4 362.6 333.52 324.28 312.16 305.12 324.16 309.36 280.44 267.64 263.32 253.36 249.4 248.52 255.2 260.2 251.68 250.36 265.52 251.8 252.12 233.48 227.92 243.48 225.24 204.52 181.24 152.96 142.08 138.56 159.44 180.68 201.28 210.32 219.56 219.52 235.6 251.04 264.68 274.88 260.08 273.76 267.6 279.08 285.2 271.76 281.44 296.56 291.16 287.2 284 307.04 314.72 288.76 280.24 256.88 238.68 188.32 124.92 107.36 138.56 176.8 189.52 226.48 223.44 179.72 154.6 158.36 200.32 182.76 181.16 196.12 224.36 214.96 217.28 237.52 248.48 261.64 276.2 289.28 328.92 381.08 372.68 373.64 388.6 419.32 445.72 490.24 513.12 568.64 553.04 559 562.28 556.36 556.96 559.28 576.64 582.56 580.08 610.36 662.32 670.68 697.44 718.64 712.64 730.68 751.92 778.08 739.12 723.2 739.72 744.96 749 783 796.96 772.8 798.8 784.44 770.48 752.76 757.76 767.4 784.6 823.8 999.68 1039.8 1072.04 1164.12 1218.6 1251.56 1275.64 1242.24 1286.6 1310.12 1395.44 1240.12 1038.52 1240 1116.4 940.72 818.16 812.68 852.32 814.88 801.72 716.28 651.32 608.72 588.04 576.56 569.36 567.84 565.76 551.64 533.56 523.16 537.36 555.8 569.68 614.44 635.8 531.6 519.48 580.64 554.68 506.4 462.92 421.16 381.76 346.68 312.4 273.44 284.56 259.72 300.72 358.44 427.04 459.16 517.12 496.52 425.2 387.92 363.32 385.56 431.68 433.24 443 459.96 476.68 460.24 388.28 390.48 364.24 435 404.56 387.56 377.36 377.12 518 570.44 601.44 514.44 326.28 248.56 206.76 180.28 192.64 239.72 299.6 418.36 530.04 569.28 585.32 554.56 565.52 531.6 512.52 560 663.96 534.64 400.04 419.24 397 395.2 467.2 431.48 413.6 431.72 470.56 480.64 537.48 640.2 706.32 627.16 577.68 497.2 518.6 547.36 613.84 601.6 668.36 514.44 450.64 455.76 430.28 472.24 541.44 534.96 446.32 406.52 386.24 363.56 348.04 331 354.04 378.64 423.2 365.08 347.6 347.08 346.92 341.88 338.4 335.24 356.08 378.88 400.84 388.32 381.52 386.16 379.48 363.24 347.36 338.24 334.56 327.16 321.44 321.16 322.16 324.8 339.68 331.84 325.12 331.08 331.44 331.24 330.76 332.8 334 334.32 334.16 335.32 335.6 335.96 336.4 336.72 336.56 338 339.28 340.64 341.36 342.56 342.04 342.12 342.28 342.52 341.96 342.28 342 341.2 341.08 341.72 340.8 339.36 338 339.04 338.88 339.6 338.6 339.4 340.12 340.16 340.48 340.64 342 341.6
144.2 129.84 119.76 112.68 129.36 143.92 157.84 169.96 160.64 174.16 155.8 147.08 143.84 152.44 181.68 169.36 183 187.92 209.32 235.96 394.96 472.08 395.04 384.24 345.32 337.56 400.24 395.64 405.64 404.32 445.04 507.56 474.8 439.08 422.44 415.08 424.12 397.48 389.64 385.84 369.84 352.08 346.92 343 333.16 339.08 337.12 349.52 349.68 370.48 354.16 336.84 328.36 306.28 325.4 355.6 339.6 331.92 357.28 377.4 397.92 387.52 376.84 387.12 381.08 382.44 400 426.56 452.4 431.6 392.64 427.76 434.4 461.52 454.04 428.84 400.28 383.56 381.88 346.36 322.92 310.32 327.28 308.32 294.8 280.08 259.28 292.12 270.12 272.76 274.8 247.36 245.68 240.08 238.16 232.76 237.4 231.2 215 209.24 220.16 204.24 184.32 175.24 159.72 133.8 132.68 182.92 228.16 235.68 254.76 258.76 246.92 248.2 236.84 239.84 263.28 249.12 244.08 261.92 266.16 279.8 274.48 258.8 248.4 259.92 236.72 290.08 318.76 275.16 262.36 302.24 303.64 275.12 256 159.88 106.48 140.8 182.52 167.84 164.88 180.8 147.12 142.4 200.68 246.8 210.72 213.56 203.28 188.36 199.4 228.04 246.44 262.76 281.12 286.96 309.16 333.68 393.28 377.28 387.16 381.48 409.72 441.44 470.52 476.4 502 483.96 530.56 515.32 529.64 528.48 531.92 552.72 550.16 572.08 595.28 614.16 649.44 679.92 751.88 712.6 719.76 751.92 772.04 717.84 727.84 761.68 754.32 766.08 759.2 774.96 798.04 808.64 826.6 794.72 766.32 777.8 769.28 756.08 787.36 897.2 1023.8 1119.8 1186.92 1191.36 1240.04 1293.6 1277.08 1292.4 1290.72 1266.44 1185.48 1188.68 1197.2 1190.84 1014.16 820.4 745.12 695.88 686.64 652.64 634.6 613.64 609.16 601 602.8 603.04 593.92 579.92 555.08 531.44 543.44 552.16 577.92 597.76 663.4 599.64 485.88 477.56 539.28 539.32 496.92 462.16 420.52 372.72 339.32 322.72 287.28 261.6 291.52 346.12 379.48 409.52 451.32 489.52 422.44 382.92 351.8 343.44 375.4 388.56 410.88 484 558.88 516.48 450.12 443.6 419.04 460.04 596.72 468.6 455.68 619.08 518.32 525.64 653.08 779.16 629.36 330.04 240.44 201 178.8 177.24 214.32 240.48 275.6 370.8 429.76 499.88 504.24 427.64 441.08 409.56 433.92 420.76 404.92 346.84 355.92 343.56 339.2 427.56 390.2 382.64 439.4 503.76 553.76 524.52 538.8 583.04 567.32 577.12 493.2 470.12 492.72 559.04 511.6 470.72 434.96 435.16 445.4 414.88 522.76 568.16 592.24 468.24 396.32 366.52 342.32 322.32 323.72 345.2 370.96 388.72 350.88 331.28 319.84 326.6 338.76 323.36 343.68 363 384.64 374.36 363.76 359.08 380.48 366.56 340.72 330.68 322.88 320.28 322.16 325.2 326.24 326.88 324.12 356.32 326.28 326.88 326.96 328.4 330.52 331.2 331.52 331.28 331.52 333.56 334.56 335.76 336.6 337.12 338.04 338.04 338.08 339.8 341.76 342.68 342.76 342.72 342.92 343.6 343.64 343.44 343.92 343.52 342.72 342.64 343.08 341.72 340 339.68 340.4 340.52 340.64 340.84 340.32 340.08 340.72 341.08 341.52 341.96 342
145.56 139.84 121.52 116.8 128 142.52 160.84 180.44 192.68 198.04 171.88 180 153.16 176.68 197.2 175.72 195.96 226.08 240.44 311.64 435.52 450.12 439.48 407.56 372 357.76 345.52 358.44 373.6 419.48 443.2 452.72 478.2 453.44 432 426.32 409.08 385.72 372.72 365.44 369.68 371 364.84 347.52 332.96 335.88 330.6 332.6 345.72 371.76 360.84 352.4 322.28 300.24 329.36 343.8 324.72 343.36 360.36 378.28 394.84 379.08 366.36 376.24 388.2 405.04 407 433.12 445.64 415.12 411.84 436.16 465.36 479.36 444.92 428.36 404.32 360.64 341.92 336.68 327.4 314.84 303.84 298.92 288.88 265.72 277.04 282.68 269.32 293.72 279.92 264.92 266.52 257.72 267.76 238.52 228.68 216.88 218.44 232.72 210.64 204.6 206.88 167.36 150 139.48 121.32 173.24 241.16 265.8 271.68 279.76 272.64 275.72 252.48 257.48 251.24 228.48 241.68 249.2 253.36 262.92 248 235.96 224.24 212.92 198.8 254.08 292.24 262 228.64 270.36 266.8 227.04 177.2 160.64 103.2 131.52 190.4 157.36 133.12 155.52 125.6 149.48 202.44 239.64 239.44 232.6 249.4 227.48 234.48 256.04 264.76 280.92 308.64 340.44 325.96 349.92 403.64 383.36 407.36 384.92 404.16 437.48 451.68 457.08 443.48 476 483.84 487.6 498.48 514.92 531.36 551.36 543.96 555.48 578.2 604.16 619.76 671.4 770.2 744.92 716.4 746.32 753.72 717.16 730.48 728.52 737.72 761.6 775.84 784.56 813.2 817.88 830.68 797.12 791.68 808.6 798.76 775.08 777.92 806.24 1003.76 1135.08 1169.28 1177.6 1200.76 1246.2 1287 1275.44 1251.16 1238.56 1239.72 1161.32 1167.12 1139.36 975.72 879.2 834.36 763.32 793.52 719.28 668.2 646.44 651.2 642.24 634.76 603.16 574.6 560.4 546.32 540 552.36 576.88 605.76 676.52 664.12 555.04 449.72 421.96 449.92 512.84 475.16 439.84 397.28 359.32 320.08 299.88 269.64 278.88 337.8 414.08 454.6 418.88 412.68 435.28 393.2 350.8 324.6 337.92 347.32 384.48 419.48 517.4 596.08 547.32 518.44 476.92 471.16 557.76 582.4 535.32 740.32 641.84 577.88 606.72 660.96 759.32 747.08 429.88 263.72 213.76 181.04 171.28 186.52 207.52 223.24 259.52 355.04 500.44 473.12 396.76 344.04 335.84 316.76 295.16 283 300.12 292.52 298.76 272.52 330.16 335.72 379.36 430.04 500.32 815.68 813.6 641.12 540.4 481.88 478.28 466.2 447.96 518.28 558.12 470.4 421.96 408.96 451.04 425.84 398.52 530.16 525.04 488 406.92 383.12 352.24 387.84 307.52 325.2 360.28 368.56 370.32 327.88 310.88 312.92 334.72 318.68 327.24 347.24 371.52 377.16 351.44 342.64 356.8 362.56 328.28 322.92 326 331.32 335.72 344.04 340.76 335.6 332.52 325.68 325.76 324.8 330 330 329.92 330.52 331.04 330.96 331.92 331.92 332.44 333.64 334.88 336.56 337.92 338.64 338.48 338.64 339.6 341.68 343.12 342.8 343.16 343.68 344.72 345.04 345.04 344.52 344.56 343.56 343.24 344.36 343.4 341.84 342.2 342 341.92 341.12 341.32 341.28 341.6 341.84 341.56 342 342.4 342.08
140.92 145.44 124.12 123.84 124.64 155.4 161.44 168.52 188.8 204.2 181.16 203.28 163.88 186.56 218.32 180.96 196.68 224 250 357 427.92 458.6 434.12 404.64 449.64 496.92 406.04 368 394.92 397.08 435.96 450.44 469.36 456.12 424.64 408.88 396.08 381.64 394.48 374.44 355.12 354.48 371.2 352.44 328.56 318.48 326.16 321.76 353.2 361.36 340.28 323.76 303.88 310.6 339.56 321.84 326.44 343.68 351.88 373.52 385.04 362.32 379.88 380.36 393.24 406.76 420.16 419.12 439.92 434.04 448.36 432.96 458.16 491.64 466.16 460.8 406.44 369.96 351.84 324.32 300.68 297 285.84 278.72 279.6 282.68 292.56 282.48 292.56 307.88 283.8 281.44 286.76 268.24 274 256.04 254 238.32 255.04 237.04 244.24 232.28 222.88 199.28 178.2 140.84 121.76 187.24 252.92 255.24 238.6 265.96 251.44 237.16 230.96 231.4 217.2 204.16 221.68 214.36 229.92 239.28 231.76 221.4 235.68 221.84 198.96 208.72 254.56 262.2 219.72 232.28 232.64 175.4 156.68 155.88 103.28 140.44 189 125.72 110.72 115.88 118.76 159.28 181.2 230.68 256 252.36 295.88 277.88 264.2 257.76 260.56 276.6 322.16 370.68 393.72 416.32 408.36 396.56 397.88 418.04 416 406.6 421.32 426.52 447.32 459.8 468.88 487.6 492.84 509.96 528.2 528.2 534.76 545.12 580.56 598.68 599.48 693.16 698.52 722.08 660.16 733.88 734.64 706.92 712.88 736.12 753.48 764.16 781.72 838.28 857.24 856.44 875.48 841.6 838.68 861.08 832.84 832.48 857.68 871.44 1024.84 1151.84 1193.24 1214.44 1213.72 1264.84 1291.48 1260.44 1206.36 1147.72 1070.04 1009.92 1011.8 948.6 904.8 873.44 827.48 799.92 790.72 753.4 714.6 671.04 658.44 660.2 638.24 620.28 597.12 579.88 552.48 560.96 572 588.48 624.32 694.32 611.36 498.48 413.04 393.88 406.04 477.2 446.48 410.96 388.96 339.36 314.84 265.64 287.84 346.36 403.08 498.8 555 439.32 389.08 385.6 372.32 332.52 312.56 335.52 346 368.44 418.56 494.56 543.12 587.24 547.56 588.72 548.16 618.6 631.4 547.24 681.72 649.32 608.44 595.08 546.6 569.04 636.12 584.6 357.36 225 185.44 170.24 182.92 222.64 242.44 249.84 296.84 420.92 520.08 518.48 420.8 331.92 296.4 275.72 260.2 257.16 255.4 247.92 247.32 308.16 314.84 341.36 475.56 586.64 650.92 662.44 709.6 496.84 441.16 395.32 384.12 378.88 450.76 446.6 444.32 386.08 406.76 461.2 432.4 389.68 367.64 358.68 346.72 371.04 355.44 321.96 352.72 288.56 306.6 338.76 357.72 351.16 306.84 294.08 301.4 307.6 318.88 333.16 353.96 366.44 349.24 328.56 330.6 348.64 337.2 324.44 351.92 352.2 351.08 350.28 353.24 353.64 348.04 338.76 333.92 329.2 333.68 338.52 337.6 336.12 333.84 333.4 334 334.08 334.64 333.68 333.08 334.44 336.16 336.36 338.4 339.68 339.92 340.52 341.48 342.92 343.12 343.68 344.6 345.52 345.96 345.6 345.44 345 343.92 344.8 346.16 344.92 344.36 344.16 343.12 342.8 341.96 342.32 342.56 343.08 343.04 342.4 341.92 342.04 341.6
132 136.84 115.6 111.88 138.92 145.08 159.52 177.84 189.76 218.2 196.96 206.04 172.88 197.2 230.64 198.92 193.08 227.24 296.8 431.56 436.88 415.84 375.08 395.76 419.88 445.12 413.04 399.68 420.72 415.68 418.32 438.92 462.88 446.2 421.12 407.64 391.76 400.76 397.28 373.6 359.84 344.68 355.04 339.16 324.96 313.56 311.92 318.08 343.16 349.12 342.08 327.96 296.4 320.4 333.04 317.12 343.96 351.24 369.28 380.32 384.48 360.2 369.92 380.72 384.32 394.04 395.6 402.36 431.24 441.88 460.6 464.96 479.2 493.4 460.48 434.32 426 386.24 350.68 325 312.6 308.88 292.2 292.12 275.8 308.56 294.84 310.08 317.8 299.64 291.76 302.6 284.08 284.32 292.4 257.76 267.6 253 263.88 263.92 252.32 235.4 196.28 196.52 159.64 139.12 119.36 175.2 222.48 248.48 221.04 254.56 252.36 210.48 212.72 221.48 186.64 184.32 192.88 188.76 209.88 215.76 203.52 210.08 231.88 209.12 189.24 175.72 240.4 236.08 213.16 232.4 239.2 197.8 137.96 134.28 99.48 144.96 115.6 95.24 102.24 124.32 132.4 154.88 173.68 195.96 266.88 274.8 294.64 309.16 322.08 332.32 294.88 273 290.68 334.6 355.4 369.72 395.28 411.32 427 413.6 437.56 438.92 441.32 473.2 437.96 457.16 473.32 478.44 481.68 498 515.96 536.76 560.6 558.52 575.88 603 579.04 651.8 658.48 648.32 654.52 709.12 701.6 704.88 719.24 735.36 743.32 752.96 768.12 842.16 898.08 842.4 851.32 841.24 887.32 964.32 914.56 908.68 958 1075.92 1109.92 1165.4 1222.8 1246.84 1275.04 1291 1250.36 1228.6 1191.12 1132.12 1039.92 981.92 982.08 969.64 961.8 935.64 878.68 833.84 797.64 766.52 735.36 678.6 636.52 626.12 609.72 597.32 599.96 592.16 555.64 572.4 605.04 618.12 666.8 694.04 580.96 455.4 384.08 353 351.12 388.32 383.64 358.56 363.84 338.84 293.76 264.12 336.24 394.68 467.6 528.28 506.92 413.4 337.8 313.36 322 305.56 297.64 316.16 338.52 345 400.64 469.04 539.8 636 657.48 565.28 501.8 509.16 515.28 430.56 413.64 377.72 378.96 446.88 455.08 481.44 501.04 466.56 501.24 285.08 179.88 174 200.08 205.08 205.8 222.96 246.08 278.48 357.6 406.24 373.6 361.16 328.6 280.32 257.76 240.88 233.88 230.12 229.4 274.96 362.08 405.2 417.44 473.64 577.04 614.2 627.56 493.2 413.48 357.12 357.4 347.56 369.72 369.36 383.36 367.6 445.6 520.68 425.28 390.72 367.8 346.04 316 392.64 431 342.16 397.08 289.52 288.2 319.64 331.36 301.2 283.8 310.48 311.72 311.24 304.4 308.92 334.56 323.48 314.36 300.08 300.04 313.12 317.68 340.36 366.56 371.36 369.92 367.72 366.36 365.72 348.56 350.48 349.32 339.72 339 339.28 339.8 339.76 338.72 337.76 338.12 336.44 335.84 337.04 336.84 335.2 335 336.8 337.84 339.6 341.28 341.2 341.88 342.8 344.36 345.2 345.48 345.56 345.96 346.24 346.12 345.72 345.24 346.4 347.2 347.76 346.8 345.64 344 343.64 343.6 343.4 343.44 343.56 343.52 343 342.28 341.64 341.16
123.12 113.92 108.88 110.6 118.96 125.44 144.56 157.4 185.04 199.08 218.04 214.88 194.76 179.24 218.84 209.72 193.44 218.76 367.52 363.08 351.96 328.56 343.64 464.68 426.24 381.44 376.32 385.92 416.68 422.84 430.4 445.6 467.56 460.76 441.12 424.6 405.44 417.28 392.48 369.6 357.2 346.56 335.24 327 339.68 332 313.92 310.08 322.04 343.36 323.92 313.28 297.56 324.64 314.72 327.76 334.08 348 361.2 379.64 376.12 355.2 358.12 366.48 391.76 383.16 378.96 395.44 414.6 411.08 434.44 478.88 480.64 454.72 428.28 403.6 414.48 392.88 376.76 347.32 330.28 308.92 318.32 302.84 279.48 305.16 302.4 317.92 330.84 319.28 317.08 288.32 284.92 300.68 278.36 260.12 279.64 278.28 274.76 259.96 240.16 226.32 192.28 167.2 149.4 112.92 156.72 185.36 247.2 257.08 216.2 209.56 215.96 194.04 204.4 210.32 179.84 177 164.16 184.56 197.08 202.88 180 199.76 228.08 229.12 206.12 170.72 194.56 214.2 215.24 200.2 239.32 198.4 149.92 115.16 94.4 116.92 96.56 85.8 102.12 116.44 133 154.6 172.2 207.28 284 311.12 309 284.2 320.32 334.84 326.48 298.56 311.2 323.92 347.48 360.36 381.2 403.36 437.52 442.48 434.28 442.84 462.16 488.36 470.56 452.44 471.28 488.2 493.52 505.48 525.68 554.12 554.04 574.6 578.04 592.44 574.48 609.84 633.36 650.88 679.24 687.68 708.6 711.12 716.36 723.2 728.12 744.2 755.84 764.08 844.52 778.4 787.72 813.8 888.92 988.6 939.96 893.6 896.68 919.76 972.16 1172.24 1290.92 1264.8 1268.32 1277.52 1242.6 1230.88 1205.12 1128.92 1032.76 1029.2 1055.52 1027.72 1000.08 960.28 921.04 864.56 823.44 796.92 757.88 718.08 677.08 674.56 638.52 621.64 595.52 575.56 562.4 594.48 615.52 657.44 697.28 719.52 599.16 457 376.76 315.28 322.88 316.12 299.04 286.12 325 344.96 274.88 312.68 418.16 432.72 437.24 428.2 387.44 334.2 299.08 279.04 274.6 281.76 283.8 297.88 319.2 323.08 353.96 390.12 475.36 440.6 451.64 396 380.4 382.2 337 285.72 277.96 326.8 460.44 556.44 478.8 443.4 325.56 242 260.08 231.12 204.44 181.2 171.88 178.76 189.12 220.44 247.28 255.84 303.36 415.52 320.52 288.92 305.76 301.72 280.84 254.8 231.32 219.6 216.04 223.88 256.84 291.84 350.6 376.36 436.24 469.56 457.6 432.72 396.08 320.68 305.16 316.52 315.32 320.24 340.92 381.72 436.4 480.56 431.44 403.2 381.12 363.2 344.2 370.88 294.64 260.92 261.52 244.8 263.64 278.44 305 273 288.28 299.76 276.28 274.36 261.36 268.64 301.96 293.76 268.6 263.92 309.2 331.24 338.8 358.88 379.16 392.68 393.12 386.08 384.44 384.48 359.92 359 365.68 349.04 345.56 344.96 345.04 342.92 342.68 342.92 344.2 342.56 337.72 338.8 339.72 339.64 338.4 336.68 337.92 339.64 341.32 342.24 342.44 342.24 343.76 345.6 346.76 346.64 346.16 345.92 346.08 346.4 346.2 347.08 348.32 348.8 348.04 347.32 346.24 345.04 345.32 345.16 344.96 343.96 343.68 343.32 343.12 342.64 341.64
131.56 111.32 119.92 113.16 118.2 121.32 135.6 144.56 155.84 177.64 179.52 188.44 208.92 215.8 213.04 231.56 216.88 202.52 274.2 257.12 275.68 304.76 398.12 521.88 541.24 382.64 360.52 370.56 393.52 435.08 454.48 451.92 466.2 450.16 428.12 421.16 417.52 406.36 387.08 377.52 359.88 339.76 338.28 350.8 345.72 331.36 332.68 310.04 306.24 317.44 316.2 295.08 309.2 320.32 308.88 325.12 338.12 359 376.88 385.56 386.92 370.32 348.76 359.2 368.28 363.8 373.92 396.56 408 396.84 435.48 492.52 488.48 446.24 406.36 386.24 390.24 383.2 351.96 361.52 329.4 326.48 331.16 308.8 288.28 308.92 310.2 330.52 357.48 333.04 299 303.08 324.28 301.16 270.92 293.28 298.24 287.44 255.36 229.04 229.36 201.72 184.24 142.76 131.56 127.16 206.04 216.44 248.16 224.76 215.56 188.92 190.56 218.68 221.92 195.68 161.68 159.24 174.84 184.6 184.48 182.12 187.72 197.44 218.2 234.4 204.48 186.48 159.96 175.68 211.04 178.84 216.48 200.4 153.08 125.72 92.96 86.92 86.76 91.12 99.28 115.36 134.16 157 189.52 211.96 254.8 273.56 277.12 250.56 259.2 273.48 317.96 321.04 319.88 328.88 352.76 339.88 353.04 381.96 424.72 460.84 455.88 462.12 484.68 491.64 506.72 482.28 488.88 493.52 497.96 525.44 544 555.04 545.64 571.28 570 569.4 567.12 584.48 610.04 648.28 683.4 717.64 730.2 721.56 730.24 742.16 756.4 745.16 743.28 753.92 773.6 753.96 766.04 790.08 849.56 870.76 923.92 920.88 916.64 923.08 1005.08 1223.68 1301.44 1224.28 1243.4 1276.52 1261.16 1231.96 1204.96 1136.04 1061.84 1075.08 1048.04 1028.4 1002.16 979.32 970.52 894.16 893.76 852.64 808.96 792.04 721.12 698.8 662.12 621 596.84 580.92 574.56 602.16 643 689.32 763.48 746.84 609.24 459.96 387.88 374.4 449.68 445.36 394.24 326.96 273.2 269.72 244.44 324.16 411.4 395.96 358.4 338.28 314.52 278.16 262.44 270 298.2 288.12 287.88 320.2 349.52 348.76 351.28 367.68 401.96 375.6 357.96 342.76 307.56 289.4 272.64 294.84 365.4 456.48 390.64 583.64 462.96 360.24 217 182.12 185.72 182.16 208.92 180.64 155.28 170.16 217.8 271.2 308.28 333.36 341.96 403.56 366.04 272.44 260.68 293.6 309.04 286.96 251.24 222 207.36 204.84 212.96 229.68 249.4 275.32 311.2 350.44 328.76 309.84 325.36 304.12 276.48 283.36 307.6 329.52 361.92 433.88 434.92 419.88 432.08 422.76 383.36 367.8 337.84 326.6 304.32 262.16 234.72 258.24 230.32 241.4 245.96 242.72 246.24 252.2 241.32 244.64 249.96 252.36 259.04 274.2 284.52 267 322.6 348.24 358 361.52 382.68 401.8 412.28 405.24 393.32 375.8 366.4 360.96 375.04 365.12 358.92 356.16 351.36 355.92 356 354.2 351.52 348.72 347.84 340.36 342.84 342.8 343.2 342.64 342 340.64 341.68 343.4 342.88 343.04 343.76 344.76 346.32 347.92 348.4 347.92 346.96 346.76 347.32 348.6 348.76 349.68 349.36 348.92 347.96 346.92 346.48 346.32 345.6 345.4 344.96 344.08 343.2 342.52 341.76
114.48 109.48 111.2 107.76 119.88 137.32 143.04 156.48 170.44 165.24 177.12 197.48 211.28 236.44 215.56 251.92 242.68 230.72 232.16 227.28 245.8 288.2 330.8 371.24 452.56 353.96 372.04 386.08 403.36 421.28 429.6 421.88 438.4 446.72 424.12 408.16 409.12 400.68 373.96 365.12 353.32 360.76 363.64 350.16 340.92 357.6 345.96 326.2 299.2 295.16 313.4 291.16 318.6 308.76 324 342.68 344.76 357.56 358 378.2 377.56 364.44 343.8 351.44 353.76 379.08 393.56 410.56 389.84 402.6 447.04 472.32 482.84 449.88 417.48 388.8 367.28 373.72 345.6 325.64 313.48 307.24 310.24 295.48 298.52 313.92 321.08 341.32 386.88 344.88 331.08 336.16 327.64 283.6 293.6 315.52 279.52 256.88 231.76 212.76 198.72 191.68 175.36 141.4 110.76 153.36 211.24 260.04 242.68 214.44 196.4 168.4 199.6 231.92 195.8 172.96 153 177.8 176.36 158.2 172.96 167.52 180.8 203.24 225.16 225.04 226.36 199.52 170.8 150.68 183.28 173.84 159.88 177.4 160.2 155.96 130.48 94.56 85.2 88.44 103.08 108.28 129.4 161.64 201.12 242.4 245.56 231.76 284.72 275.28 230 231.68 258.48 289 287.08 279.28 306.36 309.32 322.56 355.2 391.24 433.4 491.32 483.88 500.44 500.36 523.12 504.48 516.44 507.12 527.4 536.04 532.24 529.8 534.68 546.36 555.92 557.8 577.52 582.96 586.16 657.64 713.32 723.96 749.64 737.76 724.28 738.56 747.8 735.52 758.28 765.2 728.44 730.16 749 775.56 907.96 1055 1090.24 1154.08 1084.36 996.44 1001.76 1126.64 1179.44 1190.64 1230.92 1270.2 1289.24 1257.08 1231.16 1188.08 1133.04 1102.4 1072.16 1056.64 1035.44 1057.2 998.32 1226.24 1343.32 997.48 778.52 757.52 742.2 704.36 664.64 643.48 626.28 604.04 599.88 626.28 649.28 695.36 787.24 737.12 584 504.24 486.48 486 510.92 486.2 431.32 380.56 360.72 336.8 245.36 279.48 332.16 325.32 297.24 278.64 270.04 253.24 287.76 336.32 423.28 392.88 292.8 312.8 339.16 377.08 435.8 431.2 564.52 525.32 486.28 419.96 415.92 382.24 323.2 256.16 236.08 293.8 378.56 514.76 365.36 209.76 166.6 159.08 158.16 157.68 159.28 159.32 152.76 169.56 210.84 261.04 300 334.96 294.56 276.68 291.76 258.24 254 302.32 305.84 298 267.36 232.4 201.84 196.64 221.8 247.2 260.48 255.76 279.52 268.28 255.56 262.96 286.4 301.36 266.16 300.52 338.92 371.08 374.64 390.52 389.92 387.28 374.28 351.6 351.36 369.24 317.08 305.68 280.96 238.28 248.8 414.12 343.2 247.52 246.12 254.76 244.76 235.04 257.8 270.56 284.6 304.16 306.88 326.4 324.92 273.76 293.2 338.2 390.64 385.88 386.04 395.96 413.64 408.08 393.52 380.4 387.56 364.96 377.04 386.96 375.08 370.88 361.84 356.84 363.8 360.84 360.88 358.16 353.08 342.08 344.84 347.92 348.32 348.64 347.08 344.44 343.6 344.4 344.96 344.52 344.64 344.72 345.44 346.48 348.4 349.84 349.84 348.6 347.88 348.48 350.32 350.8 350.28 350.08 348.92 348.36 347.6 347.44 346.6 346.8 345.76 344.96 344.04 342.8 341.88
101.24 102.84 108.56 109.64 142.24 165.96 157.6 166.48 182.68 200.24 211.96 202.44 229.92 238.96 224.84 233.04 273.4 273.36 295.92 279.04 343.6 261.64 281 308.8 351.8 353.12 393 402.92 391.16 400.88 397.6 406.96 438.52 432.24 418.88 405.04 403.52 402.96 384.84 364.52 371.28 377.84 361.16 359.8 367.08 351.56 331.92 321.72 320.92 292.76 300.28 290.4 325.48 302.88 324.16 338.68 334.4 345.04 348.4 363.56 377.68 358.96 341.36 346.24 369.84 391.4 386.76 392.4 376.6 398.88 432.16 453.16 473.04 437.36 426 390.24 367 355.2 350.72 334.72 330.4 329.24 318.84 298.56 318.76 322.4 342.8 363.44 374.68 351.28 365.52 354.92 322.36 293.36 316.68 306.52 276.96 257.4 242.28 217.32 184.84 174.36 149.72 125.36 123.16 213.04 251.12 276.6 247.08 259.96 224.24 167.72 191.68 216.64 188.4 151.36 143.2 167.32 147.56 153.8 160.72 182.36 194.16 204.96 216.24 213.08 199.64 178.2 160.36 158.12 145.04 183.56 138.84 148.04 128 134.88 123.4 84.56 88.08 108.4 141.64 128.92 121.36 149.76 200.76 217.68 209.28 214.84 265.2 248.08 221.04 216.52 233.28 237.36 242.92 271.08 285.2 288.16 321.88 354.64 372.96 412.92 461.16 502.12 512.32 526.32 533.76 528.56 540.12 524.56 522.8 530.64 531.84 551.36 563.8 576.52 551.6 559.32 594.28 623.24 592.4 645.2 695.6 705.48 751.6 768.36 744.8 723.92 728.72 738.48 750.52 754.44 703.56 722.32 761.12 747.96 1063.64 1160.6 1072.08 1183.4 1020.52 1032.08 1025.56 1070.12 1130.6 1179.36 1246.44 1280.88 1284.44 1280 1245.84 1242.64 1174.8 1125.6 1095.36 1070.76 1049.76 1066.16 1102.4 1270.08 1199.16 939.16 747 749.6 709.04 687.88 678.4 651 627.68 619.36 621.4 654.44 611.2 660.8 753.8 721.32 602.4 568.8 575.6 561.84 540.2 482.56 424.48 385.08 350.8 328.24 230.6 223.56 257.12 254.28 249.92 239.96 247.6 247.56 309.56 474.4 555.56 359.52 317.2 403.08 448.16 618.4 679.56 557.84 406.68 347.68 297.64 255.88 232.12 264.28 280.08 338.24 313.72 317.64 304.88 209.6 154.08 144.36 140.16 139.72 142.6 144.44 147.04 153.08 150.88 161.04 166.24 188.64 184.48 178.8 181.44 198 217.08 221.88 241.56 262.12 278.64 280.08 246.24 224.64 200.8 190.12 212 235.12 243.04 242.76 256.36 248.56 231.36 237.32 241.08 260.28 274.96 319.4 368.88 391.16 426.56 416.32 358.8 358.32 330.96 311.64 319.12 332.8 290.48 294.8 272.2 228.44 275.88 318.52 364.12 317.24 307.2 312.92 303.92 288.92 302.32 303.4 302.8 302.08 309.32 318.88 327.56 302.32 281.12 308.24 346.32 366.52 366.64 386.2 419.36 423.8 403.2 391.08 377.88 371.96 381.52 389.4 394.36 390.24 381.68 368.08 360.04 364.28 368.72 364.72 356.72 344.6 348.28 354.6 354.24 353.36 351.08 349 348.16 348.36 346.92 346.08 346.08 345.84 346.04 345.92 347.64 349.08 350.72 351.12 350.28 350.48 351.68 351.68 351.16 351.04 350.56 349.92 349.68 348.72 347.92 347.4 346.48 345.52 344.92 343.6 342.56
117.04 102.04 115.68 125.76 128.72 136.28 147.8 167.48 165.28 174.68 188.84 209.08 246.56 251.68 253.8 247.08 261.16 295.72 268.04 329.56 358.52 286.6 284.56 307.08 318.04 333.56 344.32 365.12 373.8 387.92 409.48 431.4 443.92 424 406.48 398.52 397.52 402.24 383.32 373.32 385.16 374.84 386.12 381.36 374.84 355.08 350.96 344.56 325.32 309.04 285.68 296.28 322.84 299.16 327.2 322.52 335.16 351.16 365 365.04 368.32 350.6 338.64 362.48 368 377.12 366.52 371.36 391.88 408.4 434.8 433.52 450.32 443.96 431.72 413 377.88 359.4 348.24 372.8 360.36 349.56 336.88 322.04 325.44 344.2 370.16 363.32 370.76 382.84 390.24 366.88 344.48 325.64 349.32 329.84 294.96 267.04 238.48 220 225.36 212.88 184.52 134.96 115.16 187.72 245 279.2 254.36 228.16 225.44 176.48 169.64 206.96 186.68 146.08 163.28 156.12 150.16 158.24 169.56 174.72 181.52 189.48 203.32 199.64 181.36 175 175.36 148.16 140.96 148.28 128.4 126.08 136.4 126.28 100.36 82.88 105.76 126.32 135.68 165.28 147.8 140.64 158.24 180.44 179.84 202.2 208.4 209.96 207.52 208.08 226.24 233.32 249.76 256.12 259.6 293.32 313.04 323 344.08 380.6 456.32 518.16 518.84 520.92 513.16 520.6 518.2 515.76 519.84 535 551.36 569.08 575.52 589.52 573.2 577.64 609.12 654.36 621.84 661.04 670.96 674.88 721.12 771.36 746 751.84 795.6 743.16 752.16 748.24 683.8 724.76 776.92 664.08 636.16 705.92 570.12 598.88 613.76 770.8 944.96 1027.96 1085.36 1131.92 1213.96 1318.56 1316.68 1359.96 1277.36 1257.68 1186.64 1130.56 1102.64 1070.84 1087.64 1082.76 1103.32 1228.64 1260.56 797.96 730.92 724.12 725.52 691.04 653.6 638.8 637.64 590.4 623.08 578.68 537.32 611.88 678.92 627.68 559.48 492.52 552.16 483.16 482.92 454.96 413.52 336.72 299.88 266.48 232 203.92 211.44 217.08 210.44 225.6 242.44 277.12 488.24 513.96 368.56 340.44 488.36 524.16 643.64 731.32 592.2 542.92 412.04 305.72 299.6 328.48 284.32 192.72 194.8 300.8 243.6 166.32 142.64 133.12 133.32 135.4 136.32 137.36 138.32 139.16 141 145.88 146.12 144.96 147.52 148.72 148.04 149.32 154.24 166.8 184.4 192.96 210.4 227.84 250.76 266.64 246.8 222.36 208.56 185.76 190.16 212.12 227.36 224.16 234.32 212.92 211.8 226 235.12 257.04 283.2 348.6 359.68 329.28 356.24 338.8 349.96 342.08 297.76 287.56 286.12 287.84 268.56 280.84 237.36 227.08 285.2 293.16 301.84 312.12 322 340.24 348.76 332.52 356.44 350.64 334 338.24 337.36 333.52 327.52 339.08 303 285.68 303.04 326.88 351.2 391.48 414.32 424.72 411.32 397.16 386.36 397.44 396.4 394.16 396.12 398.64 393.4 381.12 368.28 367.04 368.28 366.8 357.36 352.48 345.68 353.2 359.2 358.76 357.8 355.68 354.36 351.52 348.76 347.92 347.92 347.48 347.48 348.72 348 348.6 350.6 351.36 354 353.36 352.8 352.72 351.92 351.32 351.48 351.72 350.92 350.12 349.12 348.16 347.48 346.32 345.16 343.92 342.88
111.28 106.84 122.88 112.96 123.12 138.28 141.2 142.56 170.36 186.88 226 243.36 265.8 262.48 274.2 268.8 263.76 306.48 280.68 332.64 356.04 316.48 326.12 373.56 385.04 368.72 364.4 351.24 372.2 406.24 425.68 429.08 431.48 421.16 421.24 400.08 386.12 386.64 394.96 395.48 396.6 384.68 398.6 371.48 350.52 338.08 327.92 334.64 312.96 300.28 287.84 318.56 300.08 299.64 315.32 332.44 343.2 368.36 355 343.72 354.84 336.48 347.32 372.76 356.28 359.64 373.6 389.08 417.48 435.96 414.6 419.12 443.48 451.72 431.12 418.56 403.12 406.8 382.68 371.36 390.76 376 364.84 355.68 348.28 347.68 364.92 345.68 347.32 369.28 381.6 366.4 347.36 348.12 353.08 336.6 305.4 270.8 270.48 258.92 254.44 225.44 195.4 156.68 125.8 130.28 213 235.92 214.84 189.08 209.6 180.8 155 168.08 146.28 168.2 210.12 211.44 187.76 174.12 176.28 173.56 181.08 185.68 206.8 206.92 213.28 177.68 149.68 148.92 134.88 118.12 121.44 122.8 148.8 140.08 94 89.08 112.48 130.64 142.36 149.44 127.16 118.24 153.76 147.84 169.6 168.88 175.08 207.92 196.76 216.08 236.16 260.64 306.32 326.76 285.6 302.16 289.72 332.08 359.84 388.84 499.2 504.44 505.24 493.4 498.88 509.36 517.96 528.8 538.92 538.68 553.72 586.24 657.36 658.64 609.32 612.76 630.84 652.72 625.68 628.36 637.32 661.28 716.6 765.32 759.48 766.96 776.68 756.2 743.72 742.88 650.52 738.12 767.84 643.92 537.68 522.84 549.48 561.8 587.72 753.16 967.92 1005.64 1077.12 1200.12 1270.04 1354.52 1381.36 1378.76 1314.68 1237.52 1211.28 1157.12 1131.4 1093.4 1098.6 1130.92 1125.44 1149.96 1255.32 887.6 753.8 720 704.68 680.76 648.96 535.64 490.48 483.6 507.48 456.8 489.64 541.24 603.36 516.32 456.44 422.28 457.6 436.64 413.64 408.24 354.68 300.6 289.68 249.92 222.52 208.12 200.04 205.2 228.56 242.64 319.84 480.84 577.28 381.64 379.8 447.16 321.04 387.88 529.08 477.84 423.16 355.12 345.52 332.28 241.08 176.28 164.64 158.24 165.16 170.36 141.72 135.32 134.24 133.96 138.68 135.08 136.56 141.12 144.72 140.12 142.88 144.96 144.12 144.16 145.08 146 147.68 150.36 150.56 156.16 172.64 200.56 224.44 227.48 224.92 245.52 254.84 263.84 265.92 210.68 183.16 196.96 208.08 208.36 201.36 206.04 237.4 262.32 277.36 284.16 297.96 332.48 307.44 264.16 274.56 302.52 342.08 278.88 280.68 260.64 251.72 275.84 255.64 260.4 235.68 227.88 276.88 280.92 300.04 325.84 343.24 340.04 354.28 357.48 362.08 373.56 369.52 373.92 365.48 349.76 356.6 337.44 338.44 318.84 309.28 322 339.16 358.16 383.76 404.28 418.72 402.92 399.84 414.4 406.56 413.08 404.32 409.88 405.84 392.96 382.16 381.4 384.04 374.8 365.96 357.08 353.48 348.04 351.84 355.52 358.2 358.24 356 352.92 350.88 348.76 350.28 350.04 350 350.24 351.16 350.72 351.76 352.52 355.12 355.8 354.12 354.36 353.6 352.44 352 352.08 351.72 351 350.36 349.12 347.8 348.72 346.52 343.76 346.72
101.4 101.68 111.44 126.44 152.16 162.8 155.48 155.2 181.96 260 267.44 276.6 250.48 257.12 304.6 279.56 294.88 327.6 310.96 350.48 397.04 347.36 336.92 393.92 427.36 406.44 391.24 379.56 372.8 395.92 402.12 424.56 416.32 409.24 409.96 408.4 402.88 387.36 377.88 388.56 396.32 386.92 407.48 370.36 348.04 337.64 319.96 314.72 321.32 296.24 290.52 312.84 291.92 315.68 322.12 325.72 342.68 360.92 364.92 342.04 334.84 326.72 350.6 360.28 345.92 362.76 377.56 398.28 426.48 429.08 400.76 417.68 423.72 441.4 415 425.56 421.4 403.32 387.72 357.28 371.68 380.6 363.28 340.16 331.6 334.68 355.52 331.84 332.28 375.2 360.28 349.24 333.16 325.64 321.16 301.92 320.48 312.96 316.12 292.28 254.56 246.08 216.92 188.96 155.72 111.68 166.56 215.6 238.8 199.64 169.4 174.44 133.76 145.96 169.44 200.44 195.24 190.32 191.72 173.12 167.28 160.24 165.44 193 202.04 216.24 216.76 187.72 174.04 171.88 166.04 124.36 107 122.08 157.36 122.64 89.12 98.48 141.12 148.72 136.64 129.76 117.24 109.44 131.64 127.4 147.2 146.72 173.16 183.6 179.52 209.72 256.68 284.2 328.12 351 329.64 314.16 307.52 329.12 367.28 433.52 490.32 492.76 478.4 481.52 500.24 512.16 522.76 533.76 550.36 568.64 591.2 639.76 709.72 741.68 649.56 663.76 641.16 653.04 617.92 611.88 625.92 651.32 729.52 766.96 780.6 764.4 768.64 663.48 558.44 582.88 578.08 667.04 604.36 544.28 517.08 519.96 537.44 545.96 553.92 616.56 909.88 1011.52 1144.16 1202.16 1254.96 1333.64 1397 1360.6 1307.72 1281.32 1234.28 1208.92 1137.88 1123.24 1115.04 1167.92 1175.08 1162.64 1192.76 943.6 769.84 814.24 725.2 701.52 629.92 492.44 412.36 414.84 427.36 434.4 481.64 472.96 506.04 467.76 384.72 389.52 432.28 432.8 394.84 358.48 316.04 287 262.84 243.08 231.8 215.12 221.24 203.76 228.48 313.92 414.32 397.56 392.76 372.4 372.16 461.2 282.08 312.68 393.76 403.6 349.48 253.8 206.28 180.68 163.44 153.56 147.04 147.64 146.28 136.32 132.44 132.56 132 134.32 140.36 142.72 146.92 154.72 157.2 161.28 159.64 169.48 175.64 176.32 169.04 160.32 165.32 161.76 153.6 152.32 173.8 208.56 223.32 208.04 221.96 270.28 328.6 348.92 246.8 199.32 175.64 181.72 187.2 188.16 189.04 199.12 224.08 245.36 251 260.4 278.12 292.32 297.08 241.36 275.12 448.96 353.08 231.4 256.68 251.12 233.16 308.32 237.88 262.12 246.2 225.8 255.08 294.56 317.64 337.44 335.52 330.04 329.8 337.48 350.48 373.56 398.88 408.6 379.28 368.88 371.96 365.96 348.4 360.28 339.92 332.68 346.56 350.6 368.8 386.72 417.08 421.12 412.2 430.56 422.16 429.24 419.6 424.2 414.84 408.64 402.12 401.36 399.76 393.16 374.76 367.28 360 357.6 356.2 358.72 360.8 359 356.08 353.8 352.64 351.04 350.36 350.96 352.48 353.36 353.16 353.32 353.64 354.2 357.08 355.92 355.52 355.92 355.92 354.8 353.4 352.36 351.96 351.28 351.64 349.12 348.92 348.64 346.12 345.96 348.6
101.16 114.68 136.6 138.84 149.4 175.12 188.6 186.24 184.48 247.36 241.28 232.32 238.56 270.88 322.44 288.48 333.52 332.24 373.52 413.8 425.84 366.32 364.76 384.64 452.12 431.28 425.28 413.16 396.72 383.44 397.72 423.12 409.08 397.68 396.84 398 394.44 393.08 373.8 381.76 386.88 364.56 362.96 346.76 328.28 318.84 311.76 301.04 293.32 287.08 286.96 309.16 289.28 316.32 339.76 346.92 341.64 364.64 368.64 343.36 329.4 341.84 367.2 349.92 343.48 370.88 395.72 403.12 407.04 401.08 391.84 394.2 405.52 413.88 397.52 402.2 406.4 385.76 372.68 349.48 339.8 350.56 353.16 338.44 331.44 324.6 346.4 321.24 337.76 383.56 357.56 348.52 345.76 340 326.8 320.4 289 295.68 295.44 266.16 233.12 232.24 221.24 196.2 157.44 107.12 126.56 167.64 191.6 165.56 125.96 128.32 174.04 203.32 215.56 210.4 174.8 184.28 199.52 172.96 152.44 150.2 185.92 178.56 198.2 216.32 212.48 209.68 209.2 206.24 170.84 139.04 135.52 119.64 118 106.48 80.8 110.24 132.24 157.56 129.68 112.12 101.28 91.12 101.96 117.08 120.88 133.36 157.6 173.48 177.16 205.92 251.12 267.24 287.8 330.36 360.56 350.4 342 351.32 368.76 443.4 449.76 456.76 470.6 491.68 501.32 523.32 530.12 532.44 541.72 567.8 586.52 660.6 697.28 727.32 741.4 718.12 654.84 639.96 557.16 545.08 595.96 642.52 673.44 708.04 743.8 680 641.24 572.68 502.52 488.84 509.96 541.4 542.72 508.6 503.6 522.28 527.84 527.68 530.64 531.68 649.76 865.92 1183.64 1230.44 1286.92 1332.96 1370.16 1375.64 1378.64 1322.76 1288.56 1260.28 1197 1155.72 1165 1188.04 1198.36 1177.36 1196.16 1239 853.28 796.08 780.88 701 570.28 456.08 398.6 367.96 377.16 417.24 427.36 406.52 443.56 385.12 345.84 359.36 409.6 496.88 462.2 383.56 314.56 284.96 274.08 265.44 229.8 202.28 198.04 195.92 239.8 300.12 343.6 314.84 284.16 288.24 335.84 299.84 217.84 305.72 290.2 310.32 194.28 177.6 169.84 153.8 144.24 141.12 136.8 137 136 131.08 131.76 132.6 136.92 144.6 155.64 163.28 175.92 180.24 170.48 171.24 202.4 234.6 242.04 241.84 207.28 179.72 189.8 169.88 158.24 154.36 156.36 169.36 186.88 212.44 233.64 256.16 269 230.2 189.72 174.24 169.28 170.32 175.56 180.76 183.8 199.48 206.08 212.84 212.6 223.92 241.92 264.48 279.28 228.76 296.76 293.72 214.28 200 228.84 215.04 212.92 224.6 229.04 233.88 224.08 210.96 257.28 296.12 327.76 326.72 309.12 317.72 338.68 351.92 371.2 400.84 420.76 415 382.4 376.24 383.68 390.56 375.48 363.68 372.2 370.08 370.52 375.04 390.32 399.56 411.88 443.52 426.92 443.72 451.52 449 442.16 449.4 441.88 439.68 432.6 432.8 434.56 424.16 395.68 376.4 358.44 367.96 364.48 361.16 361.32 361.4 361.64 360.08 357.96 355.84 354.48 353.88 353.36 354 355.88 355.16 355.16 355.4 357.96 358.32 357.64 357.2 355.88 356.24 355.16 354.36 354.64 357 355.04 351.52 351.08 348.96 348.44 347.76 352.4
100.56 104.08 114.64 127.8 140.2 149.88 165.96 187.92 226.24 248.4 219.28 235.2 247.48 277.88 319.88 310.68 362.88 359 395.56 482.52 453.04 420.64 414.8 414.04 484.92 517.88 524.4 519.4 484.4 428.28 406.12 424.56 405.84 395.84 385.52 383.68 380.36 382.96 368.04 382 391.84 368.56 356.04 345.8 334.84 331.12 327.52 314.04 297.92 279.68 307 290.96 296 322.96 341.6 356.44 365.04 374.8 365.2 342.64 323.96 337 360.56 345.68 347.64 375 378.92 394.72 389.96 413.64 391.04 380.36 391 412.04 386.36 380.48 393.6 380.64 360.76 359.52 356.64 332.36 330.04 325.64 320.16 316.6 321.24 317.28 334.52 361.4 344.24 331.12 343.48 325.28 308.88 296.2 280.24 263.04 237.6 223.84 215.32 199.44 199.92 188.32 151.92 112.56 118.12 125.52 151.12 119.56 134.36 174.08 205.92 239.68 236.88 186.72 172.72 191.28 192.16 161.12 131.6 154.24 154.76 172.56 196.44 193.72 189.84 196.68 179.08 201.68 177.88 140.52 169.76 156.52 130.44 88.4 93.72 113.36 138.32 131 114.64 101.2 88.92 95.32 110.2 133.72 159.72 154.04 140.64 148.72 179.28 204.16 237.04 279.72 299.6 330.24 330.68 353.96 372.84 337.64 357.6 413.28 436 420.8 450.68 435.16 477.84 527.12 527.88 529.92 528.28 544.32 575.72 625.84 644.72 673.92 720.68 731.04 707.04 655.56 511.12 476.56 614.52 637.92 581.36 636.72 645.2 580.68 573.68 533.04 514.08 483.04 495.48 499.96 517.96 488.72 494.6 494.44 512.52 524.2 530.52 550.64 562.92 777.84 1324.52 1331.84 1334.72 1359 1369.4 1355.52 1361.88 1348.84 1329.84 1310 1277.88 1254.04 1250.8 1175.24 1086.44 1165.84 1193.04 1147.16 914.32 890.16 908.8 688.4 584.4 487.96 412.36 364.8 349.4 361 368.44 365.16 407.28 342.96 322.32 342.68 392.28 453.52 448.8 362.16 323.32 311.6 297.04 261.96 227.8 204.84 186.88 194.48 216.6 225.2 223.48 233.4 240.08 277.32 312.84 229.12 199.08 308.32 222.12 187.16 163.72 155.04 147 135.36 131.04 128.76 128.24 129.64 130.36 130.6 139.08 142 152.52 165 181 196.2 199.04 205.88 202 193.68 196.68 235.4 268.96 254.76 216 205.48 188.96 167.36 173.24 170.4 155.28 168.44 198.64 247.56 319.84 372.72 244.56 186.08 165.4 164.48 166.08 167.4 171.2 171.8 180.36 188.52 186.92 200.64 206.12 226.44 250.44 254.76 228.36 216.28 224.08 186.72 181.36 182.92 187.4 193.24 199.84 205.52 213.72 199.44 203.12 223.36 257.32 284.88 323.64 297.72 314 348.12 358.2 384.04 417.16 434.44 422.92 387.28 362.6 348.84 363.72 378.84 399.76 385.88 382.28 407.72 393.64 401.6 425.2 424.88 428.52 458.6 453.2 457.88 489.68 479.68 480.28 488.48 484.44 488 468.88 462.76 447.12 416.84 398.36 377 366.8 383.04 382.48 388.04 376.96 367.32 368.72 366.48 364.28 362.28 362.84 361.08 357.84 356.56 357.2 357.4 356.68 356.72 357.68 360.08 359.24 358.32 356.6 355.28 355.4 358.12 361.48 360.36 358.36 357.6 354.92 351.2 351.28 357.36 355.36
99.08 117.16 132.28 148.12 149.96 175.48 175.2 197.36 285.52 247.28 211.24 262.2 262.44 299.72 289.68 304.8 346.08 390.84 441.32 530.32 605.4 523.36 490.08 571.24 667.28 702.84 631.08 531.64 470.36 427.08 415.16 418.08 414.48 409.72 402.36 401.96 378.28 374.04 367.24 378.4 375.76 355.08 361.32 351.48 338.84 336.4 324.6 346.72 367.16 277.88 294.8 278.88 304.04 321.76 335.8 347.92 365.52 374.8 349.96 340.24 323.88 340.04 354.28 334.24 343.04 355.92 375.92 371.36 387.84 415.56 399.2 377.12 366.92 391.24 378.12 386.4 367.16 384.44 387.68 382 367.32 363.36 354.56 343.84 344 345.08 331.6 308.36 325.76 335.52 320.76 312.56 316.44 292.48 290.16 280.08 290.4 286.4 291.08 238.44 233.64 198.88 170.12 149.84 146.08 117.72 108.4 110.2 109.44 110.28 170.2 211.88 203.76 211.88 203.6 186.56 162.08 201.44 171.56 155.28 135.36 147.8 151 187.28 182.2 177.24 190.4 216.64 192.92 161.28 148.24 130.56 141.68 155.64 144.48 85.4 104.52 137.36 162.44 150 131.24 117.68 88.68 99.12 125.08 120.6 142.24 148.24 149.92 164.92 178.96 205.64 233.12 264.28 302.28 293.56 277.88 329.48 334.48 271.52 270 302.96 314.48 330.96 344.56 363.12 433.36 498.92 512.4 503.96 530.64 545.92 581.76 630 670.4 684.72 716.28 724.12 714.28 631.76 442.64 431.44 480.44 477.32 442.56 475.6 557.6 556.12 515.44 495.24 513.32 483.72 492.2 474.64 486.32 490.32 491.08 485.32 536.16 545.24 604.84 668.48 730.16 992.48 1305.08 1382.4 1359.72 1345.72 1382.36 1349.24 1334.2 1325.64 1350.2 1343.72 1323.36 1308.08 1257.92 1111.04 907.36 1083 1163.6 1239.56 1206.68 1074.96 793.72 657.2 537.8 478.08 420.28 374.6 327.4 314.52 328.6 348.24 334.12 299.72 320.2 337.76 356.56 377.24 377.12 329.36 299.16 280.16 253.52 246.84 242.52 217.76 190.96 187.16 206.8 197.84 200.52 203.52 253.04 331.96 329.16 207.4 278.4 245.4 165.16 158.56 147.76 136.2 126.2 125.36 126.76 128.56 128.56 128.08 129.96 138.4 157.76 163.16 180.36 192.48 213.2 229 253.64 242.92 238 223.88 209.4 212.12 246.48 232.52 211.88 200.24 186.64 169.8 199.8 189.8 168.08 157.68 196.64 293.72 393 466.96 274.92 169.32 164.56 165.84 171.68 171.44 172.2 169.72 170.48 172.64 182.6 213.76 214.76 249.88 248.68 225.2 211.24 206.68 201.92 183.52 208.12 193.12 184.52 188.6 190.6 194.36 196.48 225.96 242.92 222.64 233.44 260.08 283.6 300.12 353.88 394.6 408.32 427.4 440 404.56 386.96 369.24 335.92 341.08 340.32 371.6 377.32 372.08 384.8 383.04 379.08 397.96 443.96 469.76 470.08 480.6 484 471.28 492.52 500.16 495.12 490.28 491.4 485.08 487.88 479.44 460 428.56 391.2 369.04 394.12 390.68 399.88 414.12 393.04 377.68 373.68 369 365.76 362.48 365.12 365.16 359.04 358.76 361.12 361.28 358.84 357.92 357.04 359.64 359.6 358.68 357.64 356.72 356.84 357.76 363.08 366.4 366.16 361.64 356 353.52 357.96 359.64 359.36
108.28 132.04 157.08 157.8 169.32 176.96 167.96 234.48 269.6 236.2 208.96 260.68 292 312.2 281.48 302.4 363.68 396.4 464.28 513.8 580.76 606.88 619.96 650.08 688.92 592.48 459.2 436.24 406.28 387.64 407.4 411.72 397.76 391.64 391.28 393.64 389.16 369.56 358.8 374.44 354.52 350.04 335.04 343.92 320.2 314.04 303.96 321.92 317.04 272.72 275.04 291.24 298.68 312.48 324.84 341.64 367.2 360.84 343.16 329.6 318.6 329.8 351.44 336.04 351 374.6 368.8 358.6 380.88 406.2 412.76 396.64 363.56 359.08 358.6 367.56 363.72 360.64 388.56 387.8 380.08 365.52 347.12 349.88 353.48 344.52 356.96 318.92 305.92 311.92 299.76 289.52 313.72 285.32 284 304.96 330.44 322.64 295.32 252.24 220 221.52 178.04 168.4 161.4 149.64 128.76 109.2 102.2 106.28 138.2 171.28 145.76 153.56 169.76 173.28 158 197.92 164.6 140.96 129.88 129.24 162.32 183.76 166.2 165.92 188.24 206.56 232.16 187.96 162.88 155.44 134.24 121 114.24 83.96 123.72 127.76 142.2 131 136.76 123.52 89.16 90.32 94.44 93.16 101.04 107.92 114.6 169.6 192.64 219.2 233.44 235.16 245.6 243.52 245.12 263.16 256.76 247.72 245.6 251.56 266.92 270.92 281.56 350.52 454.96 500.08 500 489.48 525.56 549.68 605.68 667.96 669.84 687.24 702.36 676.12 627.52 504.28 426.48 412.88 409.96 395.96 415.36 482.12 620.64 539.76 484.88 479 492.16 486.28 471.64 471.08 486.16 492.72 486.96 495.2 500.52 608.28 622.64 597.04 678.12 1040.52 1304.64 1339.84 1308.08 1318.04 1351.08 1361.2 1316.84 1276.08 1296.32 1334.76 1364.56 1341.44 1204.2 1016.84 834.6 933.24 984.64 1276.88 1235.24 890.84 662.64 611.08 539.6 493.92 440.6 412.28 346.2 305.96 282.64 302.32 284.6 285.36 302.24 315.04 319.04 331.6 309.32 305.92 287 262.8 240.6 225.6 225.44 211.16 188.68 175.56 197.84 184.2 185.2 194.88 266.84 261.16 185.76 210.8 184.8 157.68 145.36 140.44 133.48 123.52 124.16 124.6 126.16 128.76 137.28 145.4 148.84 160 183.36 181.84 201.76 213.92 271.84 278.92 305.28 280.96 251.28 255.28 238.28 212.28 232.84 223.64 203.16 189.88 176.92 185.64 198.16 184.36 171.56 174.6 169.16 221.28 293.68 242.72 177.72 187.6 188.28 181.48 193.92 194.96 181.52 175.8 171.6 171.44 173.24 204.56 232.56 220.88 219.08 196.92 188.36 189.08 183.68 202.32 252.6 233.24 186.68 190.04 194.68 195.64 203.08 225.32 255.56 265.08 253 263.52 283.76 327.32 365.88 367.08 386.68 419.88 429.16 370.68 338.4 325.48 321.64 328.68 341.28 350.72 347.16 340.36 350.92 357.16 377.16 379.68 414.28 436.96 445.84 455.96 453.8 448.44 463.08 476.64 461 452.76 458.04 462.16 460.72 462 438.96 416 379.04 395.32 394.52 412.76 428.56 431.28 411.88 395.76 383.84 375.72 369.4 366.28 364.64 364.48 367.04 359.92 365.4 367.2 360.92 359.36 359.04 358.08 361.4 359.2 361.4 361.64 363.2 366.6 367.2 369.28 368.48 363.92 359.48 355.6 358.8 361.04 362.52
107.8 127.04 142.72 165.04 166.96 143.28 168.96 209.08 324.76 235.72 203.4 289.68 320.88 386.2 253.16 296.52 348.2 375.36 525.84 545.4 488.88 467.44 462.32 520 532.28 462.6 435.68 408.08 384.28 370.8 406.64 409.48 403.72 386.32 383.88 373.4 371.24 378.96 359.32 367.56 344.24 334.44 319.72 336.84 328.96 327 309.04 291.44 294.28 262.88 273.08 296.72 319.24 329.08 341.72 349.64 366.16 362.64 350.88 346.52 337.64 320.36 344.8 328.6 352 345.28 355.52 371.76 377.16 390.48 406.2 385 382.48 371.88 371.52 352.44 349.2 340.2 371.32 363.64 369 358.76 351.76 335.08 324.76 312.04 325.84 308.56 309.76 296.56 296.52 298.52 301.56 305.72 307.64 306.48 343.2 317.08 287.6 247.84 229.36 220.8 181.16 194.92 202.88 174.52 170.88 133.32 105.92 123.16 152.32 130.36 93.84 82 91.08 116.24 136.72 154.6 159.28 120.68 138.2 149.96 174.6 153.84 146.12 154.32 184.12 203.16 254.6 235.04 176.92 156.24 130.72 118.08 92.2 89.48 108.8 142.08 155.36 133.48 111.72 111.04 102.08 80.04 76.12 81.76 82.96 88.2 123.16 172.4 215.36 211.16 214.6 218.44 222.96 225.6 241.48 244.56 247.96 252.8 238.52 244.92 247.36 260.92 307.4 415.4 406.16 467.16 470.8 531.08 530.56 498.88 576.88 641.12 679.12 715.2 723.48 652.68 572.16 434.08 406.68 408.76 384.64 410.08 429.8 480.72 652 510.04 449.56 474.8 472.08 487.96 469 466.92 485.28 507.92 508.72 517.32 532.08 669.08 655.2 577.88 803.32 1213.84 1293.36 1299.6 1311.8 1300.88 1312.52 1300.48 1264.08 1222.36 1238.76 1265 1359.48 1310.44 1145.64 951.76 788.76 632.28 651.88 811.28 720.16 505.24 676.44 655.88 588.84 520 523.88 487.64 384.36 310.12 267.76 267.64 265.44 290.28 282.88 302.4 294.12 287.92 279.96 270.16 259.48 247.28 249.2 226.2 207.28 198.24 187.12 170.12 182.36 176.32 187.96 221.8 235.32 219.12 215.72 207.2 147.92 140.72 129.68 124.36 122.72 123.52 125.2 126.32 131.08 137.08 152.44 160.8 175.28 189.52 200.4 217.88 223.96 227.16 246.84 275.92 320 327.84 269.56 273.4 257.08 224.04 245.08 241 218.8 193.84 185.44 203.44 213.44 212.32 190.6 173.4 164.16 163.36 163.48 162.36 178.56 203 201.44 201.4 217.08 213.6 179.32 178.24 175.4 180.68 175.64 177.6 197.52 181.96 180.2 176.6 178 181.04 187.72 223.48 282.12 297.04 192.48 201.84 208.28 205.48 208.84 242.2 261.96 295.6 285.64 272.16 299.64 323.32 336.6 357.68 391.6 415.52 405.52 371.16 330.16 304.44 310.64 315.56 330.08 322.04 329.76 337.48 361.72 377.52 383.36 391.76 400.72 422.4 432 425.12 421.84 418.24 437.44 436.16 426 422.12 424.32 420.28 441.16 442.96 418.04 392.72 383.16 412.6 426.8 424 445.88 451.6 438.4 422.64 411.72 390.48 380.24 378.44 375.8 373.32 368.56 361.08 367.72 371.96 368.6 361.2 360.24 360.12 361.04 365.04 366.92 372.08 377.16 379.8 386.56 376.4 372.72 369.08 369.68 364 366.92 371.36 371.84
140.8 142.68 136.4 142.24 129.88 147.4 173.64 238.28 393.92 251.68 203.24 254.72 353.36 262.68 238.28 268.44 291.08 362.12 533.4 480.64 445.36 426.72 420.96 468.28 480.96 490.04 454.44 398.32 362.24 374.4 387.24 403.84 408.2 408.48 403.92 384.72 368.08 371.36 359.28 354.52 344.28 318.6 306.68 317.04 313.32 317.4 322 302 272 260.72 283.72 295.76 306.56 319.24 321.4 343.48 358.96 336.44 336.96 341.8 329.52 317.08 322.92 327.76 333.16 354.76 377.76 364.56 377 402.4 416 410.76 385.2 399.76 414.56 405.28 353.8 346.52 336.16 328.64 331.96 335 326.68 325.6 324.36 330.4 335.88 317.6 339.76 317.92 325.92 304.36 322.88 344.24 350.96 339.56 346.8 347.04 291.2 258.96 239.52 220.16 203.28 222.12 240.92 213.56 176.36 138.56 110.12 143.2 143.68 102.48 75.64 75.12 76.8 75.2 75.04 91.36 130.92 120.08 157.2 169.72 159.84 125.88 122.44 129.96 165.88 220.56 260.2 204.76 190.72 164.88 149.72 149.36 106.96 89 142.76 151.12 170.32 132.72 122.04 103.8 87.96 75.04 96.8 110.92 99.52 111.4 118.96 152.72 211.76 235.6 239.88 232.2 235.92 245.56 234.76 244.72 343.56 315 211.12 251.28 255.96 240.08 246.36 308.76 300.64 429.04 483.84 580.24 571.08 455.44 552.16 592.64 679.92 743 761.04 646.76 498.52 408.32 393.16 389.28 383.4 391.92 425.56 462.6 489 463.52 421.92 432.76 473.72 498.56 477.56 462.68 490.64 506 507.4 531.12 537.88 562.84 548.84 574.6 771.52 1172.92 1224.64 1249.04 1288.84 1283.96 1229.52 1152.12 1126.4 1130 1212.6 1189.36 1235.44 1223.12 1032.64 879.44 651.48 472.6 483.28 619.64 424.72 476.28 699.36 928 986.72 711.32 616.08 472.16 335.32 307.92 262.8 249 253.44 282.32 266.16 295.12 265.44 254.8 255 241.52 226.8 223.36 232 223.36 200.84 190.92 185.44 169.96 168.36 168.36 189.16 243.08 261.12 217.2 181.96 161.6 146.8 134.96 125.04 122.08 123.08 124.04 128.04 136.24 149.56 157.44 163.32 179.32 187.04 223.6 239.04 248.96 266.12 252.68 267.96 300.44 320.64 313.56 304.36 298.84 273.08 236.12 254.6 279.6 237.12 199.12 192.24 223.6 248.12 219.2 194.36 185.04 175.76 179.64 173.16 170.48 167.96 171.64 194.72 221.72 228.6 205.32 179.32 188.12 195.44 211.16 210.52 257.16 204.76 219.4 217.84 226 231.32 216.96 200.68 220.64 267.36 276.08 200.48 188.16 188.36 192.92 218.36 253.68 301.44 339.4 307.8 301.76 327.64 350.88 313.88 335.8 363.92 357.8 352 322.92 304.84 296.88 309.36 312.12 316.2 333.72 355.4 359.16 373.56 393.72 413.96 423.4 436.68 441.4 414.28 400.08 402.96 414.68 433.48 419.2 408.4 399.72 395.04 408.88 409.2 409.4 402.92 383.8 397.96 430.08 447.04 450.64 457.48 438.08 430.48 428.88 417.64 394.44 387.52 387.36 384.8 375.88 365.88 368.16 376.52 372.84 374.84 366.96 362.08 361.92 361.16 365.12 376.96 386.64 394.72 403.16 411.04 402.8 393.12 386.16 377.8 370 369.12 370.04 370.44
120.12 112.24 115.28 115.8 139 217.24 167.88 190.48 365.08 227.2 190.36 249.6 351.76 230.68 236.92 269.28 330.8 421.64 550.68 383.52 399.44 392.32 412.84 465.48 490 482.92 439 379.84 352 355.24 386.16 395.84 389.16 406.6 405.92 382.68 375.04 350.8 346.92 329.92 335.6 314.6 292.92 293.76 296.64 295 330.88 303.96 284.12 261.96 283.48 283.52 288.52 299.12 315.96 350.92 355.36 343.28 322.68 320.84 333.52 312.92 329.92 350.32 359.68 341.76 357.12 383.4 412.48 412.04 433.8 413.08 409.72 426.8 410.04 392.32 348.4 384.96 356.76 337.56 346.92 345.4 329.76 334.76 330.44 341 346.04 334.64 359.88 349 326.44 315.48 342.44 371.32 391.16 395.48 367.96 324.84 288.08 277.16 247.4 225.84 240.52 252.56 265.04 236.64 199.88 188.2 136.28 108.56 89.76 80.56 76.28 75 76.92 76.92 74.24 72.2 72.36 80.16 93.08 125.52 138.2 115.8 127.28 155.08 185.24 218.32 203.68 226.6 248.64 242.36 180.44 127.68 101.44 80.44 120.12 145.04 159.88 141.68 131.2 104.24 77.16 88.08 112.4 130.68 121.6 124.48 139.88 147.96 162.92 191.24 228.48 249.76 248.04 260.04 251.32 296.36 404.08 304.88 199 247.6 252 219.08 237.24 256.36 262.72 427.44 443.8 443.36 449.8 439.32 575.04 638.8 661.32 660.4 707.4 708.92 490.12 395.64 370.84 388.08 385.48 405.24 451.24 452.76 516.76 483 394.36 435 488.76 491.52 463.96 481.72 484.88 488.04 509.68 532.84 494.4 528.76 539.24 558.52 596.56 700 717.76 1057.64 1239.16 1222.32 1114.28 1096.56 1022.72 1095.92 1073.96 1074.84 1183.52 1189.64 946.44 798.76 477.24 398.52 389.32 394.72 411.24 554.92 848.96 963.16 1096.44 750.96 590.84 443.12 309.96 286.48 255.48 237.36 253.4 258.04 251.6 265.8 255.96 242.64 233.6 225.2 207.12 213.64 216.72 193.48 179 174.36 190.24 180.52 164.2 279.44 240.48 237.96 205.48 170.56 151.28 142.12 131.72 124.76 121.72 122.24 125 132.52 140.68 156.44 164.64 176.64 196.44 213.08 203.96 239.36 285.08 302.08 318.72 305.12 338.56 395 475.8 436 352.6 305.56 270.76 243.92 259.76 273.44 240.08 205.92 201.48 246 272.08 235.08 217.84 218.84 188.84 202.72 214.2 197.92 197.64 176.48 189.96 213.12 210.92 190.52 179.6 191.64 223.64 240.16 259.56 253.36 194.04 218.6 246.84 320.92 288.72 271.76 215.36 235.6 281.48 284.8 220.68 191.04 189.12 192.28 203.44 229.76 260.88 346.84 337.92 310.44 317.08 309.52 289.92 294.96 305.08 305.88 292.96 290.8 303 327.4 333.32 341.08 328.52 334.04 347.84 373.96 397.44 424.36 439.32 446.88 431.04 416.96 395.8 388.08 395.96 395.36 412.84 412.76 408 405.4 404.48 389.8 385.8 390.56 400.12 412.44 408.08 427.08 457.84 468.28 440.68 424.08 404.28 398.4 388.68 376.84 369.72 369.6 368.04 364.84 367.84 383.28 392.28 385.68 375.16 379.44 370.2 363.2 363.16 365.68 381.88 406.36 434.64 440.16 445.72 458.64 429.2 413.48 402.72 402.4 399 405.24 397.24
97 110.36 142.76 143.2 133.6 194.28 186.72 211.08 310.8 214.6 184.8 226.44 257.96 213.88 248.72 299.36 322.84 488.12 443.36 312.12 325.52 349.8 395.76 514.08 514.64 425 390.84 359.6 341.44 370.2 375.84 375.88 377.32 400.2 393.8 376.72 406.32 383.36 348.36 317.92 317.76 315.8 301 279.24 277.56 278.76 300.64 273.08 276.96 262.88 265.72 266.52 293.36 316.72 323.24 347.04 364.44 346.32 337.52 323.48 308.04 306.96 335 355.8 369.92 360.44 370.72 376.84 398.84 426.48 439.12 427.52 423.16 418 387.4 357.76 368.84 382.56 362.28 369.52 379.04 371.24 346.4 350.6 378.32 355.76 360.92 364.24 386.64 356.6 323.04 326.8 323.48 363.52 422.12 422.2 399.6 368.2 328.72 275.84 283.72 261.36 280.24 281.64 261.12 231.36 223.88 207.68 137.28 164.08 205.16 122.4 88.96 80.44 78.52 77.84 72.4 72.36 71.68 72.08 74.8 79.88 100 120.2 155 154.32 181.16 213.32 147.04 190.56 240.32 271.08 219.96 168.2 97.52 88.48 149.64 171.52 162.88 121.04 110.2 88.44 73.28 107.4 128.12 137.6 141.04 138.24 128.72 134.2 154.84 184.88 222.08 228.36 255.88 264.48 254.12 308.52 358.92 216.08 186.16 193.92 213.28 209.56 215.12 216.76 255.2 402.28 387.88 369.6 397.56 437.56 472.2 471.04 541.92 613.64 675.48 589.84 447.92 400.44 365.68 385.12 407.24 412.28 416.72 416.84 498.96 417.32 365.88 442.96 497.2 478.48 456.24 471.12 479.72 485.92 516.64 536.88 469.2 451.4 493.44 509.28 554.84 492.84 507.6 1010.24 1057.72 978.68 995.68 977.84 949.36 969.76 723.44 917.68 964.64 938.04 772.52 457.56 356 354.08 340.32 568.36 519.4 476.88 731.08 664.32 629.48 355.36 386.68 335.32 277.84 264 243.4 228.4 256.12 245.96 226.32 253.08 255.96 227.68 211.64 214.24 191.48 209.88 215.72 202.64 174.36 165 182.4 171.96 166.44 251.2 187.64 164.36 148.8 146.2 138.56 132.08 122 120.12 122.72 126.52 132.56 144.32 155.48 172.92 194.16 198.68 225.76 255.16 234.08 323.04 440.44 448.6 480.92 404.92 527.4 445.44 582.48 597.2 399 357.32 307.04 264.32 257.64 264.2 239 222.64 213.6 334.56 336.48 286.48 310.6 372.12 281.96 252.52 234.76 226.08 213.16 180.76 196.88 240.68 242.84 216.12 184.08 184.52 210.88 238.64 279.24 244.84 202.08 213.64 238.48 260.04 297.68 304.32 221.56 248.88 297.04 293.44 235.88 197.32 189.4 191.52 204.28 220.2 238.72 283.68 297.6 292.44 291.48 275.88 278.84 262 267.08 273.6 281.16 299.56 318.24 352.04 367.72 357.36 359.48 359.56 378.16 405.96 400.52 425.6 429.72 408.64 400.88 385.2 376.56 377.04 379.48 388.2 404.44 423.6 417.32 416.6 408.96 400.08 394.48 410.32 442.92 431.92 428.68 457.36 470.44 467.2 430.72 408.28 396.44 381.48 378.84 385.32 385.92 385.6 377.32 383.84 381.52 384.36 388.48 396.44 401.32 404.16 393.68 366.12 364.4 365.2 386.96 417 443.2 462.48 479.48 490.16 464.92 449.56 452.48 458.88 452.56 465.6 443.68
96 100.88 133.76 162.68 135.32 192.12 224.12 220 287.16 230.4 180.76 230.28 204.6 205.92 248.8 278.8 330.64 534.6 340.56 336.76 351.96 373.52 425.12 558.88 658.88 483.8 387.36 346.68 340.08 359.44 362.56 366.84 368.08 392.16 393.52 399.16 430.2 375.52 341.32 326.56 304.4 298.12 294.6 302.08 288.44 276.92 295.16 268.56 254.68 255.08 260.84 287.04 300 309.4 314.52 331.72 359.92 366.44 340.76 326.96 311.32 302.12 320.28 345.76 342.6 359.32 370.6 384.08 392.76 402.92 419.44 430.2 395.96 388.88 370.44 370.16 378.32 398.24 387.08 398.56 369.28 351.92 361.24 371.28 389.2 375.24 400.76 382 366.64 344.04 349.28 353.28 319.36 369.24 415.08 425.4 400.12 378.8 327.12 278.64 323.12 305 312.24 285.96 265.6 232.08 192.6 172.88 160.28 159.44 176.08 131.48 100 105.84 99.52 92.68 92.08 77.08 69.32 70.16 72 68.64 69.4 78.88 90.84 93.36 121.52 160.12 134.92 171.56 210.44 262.32 185.88 126.52 78.2 115.12 176.76 158.12 176.24 141.68 111.44 81.12 85.44 124.36 132.16 121.72 132.12 117.4 134.56 147.48 148.32 168.44 182.24 190.48 204.96 244.64 234.12 213.04 229.8 172.4 175.92 178.56 187.16 206.04 193.12 231.56 295.6 319.52 332.2 346.76 367.84 409.36 432.44 450.92 481.28 531.76 560.6 449.36 420.08 382.12 361.36 375.2 411.08 419.48 411.2 378.16 363.28 343.32 359.8 425.12 484.24 482.56 454.84 467.96 481.36 473.88 499.32 541.68 412.16 422.8 438.36 473.4 467.8 467.44 428.88 565.96 739.96 851.4 836.28 799.56 895.36 709.72 475.6 633.36 802.76 722.28 651.28 388.64 329.4 318.8 323.6 473.04 462.36 370.88 481 299.96 307.44 308.56 292.16 270.2 249.2 246.76 223.44 234.8 239.12 223.84 219.32 226.24 232.56 221.84 198.12 195.6 184.32 204.36 193.92 192.2 171.16 161.04 191.64 187 160.96 172.04 186.56 163.2 143.96 133.96 124.36 121.28 118.88 121.12 121.12 128.12 148.32 149.24 152.4 181.2 218.84 237.32 237.08 316.52 419 334.16 343.96 417.68 522 448.76 485.96 466.52 486.28 451.92 425.88 401.08 318.2 273.36 269.44 295.04 281.12 248.84 215.88 243.8 321.56 315.92 351 538.48 567.64 547.96 409.64 238.92 198.16 187.56 191 224.84 249.32 215.84 185.64 185.56 192.84 211.84 226.28 249.6 214.04 212.52 223.52 273 299.28 283.32 228.96 257.92 306.08 309.6 240.36 211.64 208.8 218.4 257.92 274.68 252.2 260.12 254.8 267.56 266.96 259.4 259.88 263.92 285.56 293.4 302.56 307.36 324.24 344.08 339.8 361.16 391.52 403.84 447.52 445.08 439.8 454.08 422.4 391.8 379.04 367.88 380.36 396.28 394.84 400.12 403.52 416 418.52 422.36 408.96 409.64 416.76 423.12 463.24 437.64 433.52 461.04 467.76 438.8 437.16 411.4 390.28 383.28 404.08 395.16 389.4 386.8 383.72 388.96 392.72 407.24 401.32 406.04 393.92 388.2 381.88 378.96 367.4 366.28 365.12 370.32 396.48 421.88 442 464.52 468.36 467.24 467.92 472.56 468.48 480.32 475.52
109.36 96.64 137.04 167.84 143.12 166.6 197.68 215.84 336.64 249.32 171.48 194.6 211.52 235.28 220.92 236.84 274.52 383.24 318.4 464.8 437 417.84 415.12 417.72 432.76 408.2 366.56 344.48 339.16 346.04 347.48 353.92 367.08 382.96 382.92 399.48 385.52 370.04 359.08 350.8 319.72 324.56 320.56 318.96 307.12 308.76 318.68 272.32 248.32 267.72 272.44 277.28 289.16 299.56 320.12 320.84 326.36 356.16 356.2 349.4 334.36 298.72 315.08 328.6 322.32 337.36 344.6 361.2 380.28 412.08 420.4 399.04 415.68 395.52 393.2 396.08 410.32 428.64 400.44 394.84 367.24 372.56 376.84 382.88 415.2 413.32 420.84 396 374.16 373.24 359.28 337.32 328.8 372.96 399.16 428.08 415.68 392.8 325.96 296.4 326.64 334.2 333.44 295.84 280.6 216.32 189.6 226.68 213.6 184.8 182.8 126.56 121.96 161.04 139.68 169.76 159 132.96 102.48 85.28 73.48 69.8 68.6 68.56 67.28 66.16 69.04 117.76 129.88 157.48 193.44 225.4 237.88 149.2 85.96 133.2 163.56 210.68 185.4 143.24 115.56 73.16 100.64 121.32 104.88 103.4 109.6 120.52 144.92 152.2 176.6 186.16 162.68 150.84 178.36 220.36 218.24 200.4 179.56 161.76 156.56 168.56 199.88 205.68 186.72 236 279.08 288.16 311.12 332.92 358.4 390.36 410.52 451.4 488.28 580.36 474.24 407.88 389.04 393.72 360.04 365.12 400.44 378.04 373.8 355.92 334.68 348.44 384.56 451.48 481.4 474.36 458.68 458 467.96 482.16 493.6 461.24 410.32 398.32 422.6 455.16 438.28 463.32 376.24 295.04 302.84 591.32 521.32 786.44 836.44 682.08 397.04 413.48 591.68 683.08 653.48 372.48 301.08 287.6 289.56 304.44 292.24 283.88 275.32 274.4 275.28 282.4 289.44 291.68 280.6 223.2 220 239.64 216.16 204.32 202.2 210.88 210.8 211.84 192.96 179.72 175.88 192.2 185.12 169.08 153.72 159.44 183.16 180.44 155.2 163.28 190.76 165.48 157.28 151.6 122.12 120.96 119.88 121.04 126.24 140.64 166.72 183.68 163.72 198.32 261.96 378.16 409.12 436.28 593.16 511.64 337.08 396.92 504.16 521.4 546.44 477.84 429.6 394.16 360 330.68 302.16 283.76 290.6 317.6 289.8 260.08 256.8 233.28 259.8 313.24 367.32 486.16 703.32 721.92 593.52 250.16 214.12 207.56 200.08 217.08 240.64 217.04 200.76 188.44 201.72 231.44 240.56 251.16 224.8 220.44 250.64 265.56 281.64 250.88 233.16 267.96 303.32 301.84 255.24 240.44 222.32 213 256.6 298.8 249.52 254.2 242.6 253.4 256.68 243.36 244.44 257 270.08 275.28 284.12 289.2 305.28 323.04 341.16 371.64 387.76 399.16 435.96 478.68 476.84 470.72 445.88 412.92 374.4 380.52 384.36 388.92 380.92 382.24 390.6 398 417.04 440.96 426.72 419.4 435.96 418.08 453.84 448.64 432.8 451.96 447.48 421.6 423.16 400.48 381.92 393.4 414.16 400.84 396.12 384.48 390.44 398.84 415.8 429.64 424.8 436.16 412.08 405.84 397.64 395.92 389.8 373 368.52 366.64 368.4 373.64 405.24 432.84 443.08 444.04 442.68 436.44 436.56 436.44 432.44
97.92 127.64 162.28 178 154 175.16 199.48 180.72 265.2 211.36 170.72 234.6 307.04 269.56 241.56 255.64 271.8 451.96 360.52 506.96 438.76 417.84 384.16 371.4 364.24 346.76 345.56 327.88 339.44 334.8 349.32 367.4 377.56 373 375.44 387.96 380.48 381.48 360.68 341.2 330.48 319.72 314.36 298.24 312.28 317.04 291.44 252.36 248.36 256.36 271.92 291.8 305.68 285.2 306.92 295.04 312.92 343.64 337.92 327.48 320.68 297.96 302.16 310.04 333.4 339.96 372.72 381.56 398.6 425.76 386.6 374.68 400.12 398.6 408.92 420.28 440.08 410.72 387.56 369.28 380.68 382.8 396.84 384.52 425.72 446.96 410.76 398.28 385.56 368.04 365.4 349.32 325.88 358.32 378.52 416.16 402.08 384.44 341.44 300.72 297 328 288.96 248 226.6 206.24 220.68 237.12 241.24 189.92 162.64 155.12 169.24 184.44 165.8 186.16 202.32 192.08 156.48 149.28 122.12 78.48 71 67.76 66.92 64.8 64.04 65.88 68.6 86 99.56 132.2 147.6 142 96.36 71 93.4 154.16 151.88 129.28 106.8 71.28 116.68 110.96 107.12 137.68 126.68 121.72 129.76 142.12 158.88 158.36 147.28 131.28 167.88 190 194.64 200.72 186.68 163 139.16 172.44 184.68 173.32 196.12 219.52 239.52 306.4 308.6 329.04 351.72 384.84 426.76 461.64 477.32 549.88 426.16 377.52 351.96 354.8 344.52 348.76 375 345.44 348.76 346.56 317.32 372.6 371.44 406.16 414.92 443.6 455.8 453.72 452.04 485.44 475.36 433.84 393.88 367.76 401.24 423.04 409.36 407.44 281.12 248.64 239.04 269.72 318.4 586.72 560.32 395.92 334.64 372.16 438.48 537.2 520.2 324.6 281.72 263.64 273.36 274.48 255 263.6 247.2 254 253.48 262.76 275.12 256.4 241.68 229.24 201 211.68 203 199.84 189.8 185 193.36 185.96 179.92 169.92 165.12 181.36 176.2 162.48 152.36 156.04 184.08 170.12 147.08 165.12 167.68 170.08 154.72 133.24 117.92 119.04 120.32 124.32 141.24 147.16 177.44 201.16 189.04 193.08 260.68 286.76 293.68 355 435.4 416.28 358.16 424.36 538.24 593.52 575.04 524.84 466.56 409.2 354.04 339.2 318.96 312.2 316.72 329.12 335.48 318.96 272.96 243.8 295.08 319.52 357.64 497.68 779.08 816.92 548.84 251.68 251.2 221.68 214.76 249.88 375.16 254.64 216.2 194.72 253.56 299.96 305.88 285.88 252.64 234.56 242.32 280.2 280.6 244.6 236 245.6 277.48 292.36 277.2 280 235.08 214.12 213.6 217.48 216.72 220.24 220.6 242.2 229.2 235.24 263.16 273.04 276.16 280.08 287.88 309.84 330.8 347.44 352.76 364.48 357.32 377.08 408.92 441.52 481.16 462.6 423 393.24 370.04 373.76 374.88 375.24 380.44 380.64 389.6 409.12 436.08 456.4 441.8 428.52 429.4 415.2 425.72 445.24 456.2 452.36 435 413.88 404.52 394.48 385 408.88 407.36 413.72 395.64 387.52 396.6 395.2 429.28 471.92 462.6 485.8 458.24 433.08 421.2 437.84 422.4 401.44 387.04 372.92 367.96 370.6 376 401.08 408.96 414.76 411.24 405.68 405.56 402.64 399.28
124.64 145.48 176.84 188.8 180.36 203.2 194.56 167.72 210 166.36 181.28 251.6 418.08 269.28 261.88 296.76 294.28 487.64 450.76 475.8 405.12 383.56 359.64 341.28 348 346.6 319.96 314.76 346.84 330.24 349.48 353.48 368.64 366.16 363.96 376.32 372.92 357.52 357.84 341.72 323 305.64 294.16 287.32 293.08 299.8 278.28 245.76 240.56 273.68 355.56 310.52 290.04 273.28 291.68 288.96 323.24 350.08 350.6 329.64 314.44 291.76 311.4 329.68 351.72 366.24 360.84 372.12 397.6 402.6 363.92 359.56 371.16 365.16 403.16 427.28 420.24 401.52 390.2 387.72 392.84 403.24 420.84 407.56 448.44 445.08 425 413.12 390.16 375.28 384.28 368.64 336.16 361.88 386.4 414.48 385.6 357.92 333.6 278.24 269.76 303.56 251.6 243.52 225.48 227.8 260.96 249.76 204.64 174.32 176.08 211.4 230.4 208.92 209.84 231.8 224.96 212.72 196.48 167.24 108.68 112.52 77.12 70.2 70.48 68.12 65.8 63.44 63.4 62.64 64.4 66.92 71.48 77.4 92 81.96 67.44 131.24 131.96 109.84 116.4 70.36 105.76 109.52 113.24 127.88 137.28 148.6 143.52 144.44 147.92 146.48 132.48 136.28 149.96 171.32 165.72 184 177.6 167.8 135.36 159.04 153.04 167.96 186.6 196.28 236.88 372.6 298.4 322.56 334.48 380.92 424.04 455.84 493.72 524.12 395.88 360.24 335.8 323.04 332.16 342.84 361.88 324.64 331.32 327.08 307.8 334.24 328.64 369.72 398.04 406.68 439.8 429.48 439.2 458.92 465.8 421.36 386.16 332.44 376.32 372.56 369.32 372.56 238.48 223.44 218.92 236.24 261.84 344.92 350.56 287 273.4 311.72 335.24 334.12 308.88 287.44 264.64 241.96 265.16 235.52 250.12 254.08 227.64 243.44 238.68 253.32 241.96 229.6 219.2 210.4 190.96 209.84 191.56 175.04 184.08 173.96 168.16 170.48 163.36 165.64 151.64 169.88 158.92 164.48 138.68 147.32 163.88 157.48 142.12 155.4 163.36 148.76 159.84 119.92 119.2 118.72 118.6 139.12 176.44 151.04 182.4 216.12 215.24 178.4 191.32 210.32 228.2 319.16 508.92 494.56 416.32 424.08 489.44 549.04 541.28 544 454.64 390.64 360.68 371.32 366 348.68 336.2 363.16 357.48 329.08 296.2 268.32 273.68 327.72 406.8 553.76 762.76 663.72 321.2 282.76 257.2 245.68 236.12 319.68 576.72 294.04 197.04 206.16 261.24 370.92 429.88 394.08 340.16 266.16 255.6 262.72 286 267.72 282.44 255.56 261.8 280.56 252.24 239.92 220.88 214.24 214.96 217.04 213.72 213 213.92 225.08 217.84 229.28 247.52 273.52 289.04 305.6 315.52 317.44 313.24 322.08 336.48 332.36 346.6 368.04 387.72 410.92 448.96 428.96 419.92 377.36 398.84 395.84 416.88 408.88 399.8 408.12 406.64 402.76 417.96 449.08 450.6 454.68 439.4 430.8 432.36 435.8 431.36 421.6 418.56 423.84 405.16 393.92 391.44 419.4 413.16 414.84 401.04 395.16 418.76 424.08 445.64 492.6 514.64 530.24 504.96 477.88 464.32 480.96 468.48 446.04 418.56 395.12 373.48 370.4 373.6 372.6 379.88 390.28 384.32 383.44 385.56 383.96 382.8
118.28 141.6 180.04 178.28 160.4 192.64 182.72 157.68 155.04 154 205.52 413.32 354.68 309.72 285.12 310.84 335.32 444.64 557.08 460.04 393.52 361.24 353.16 328.92 338.36 334.92 304.28 316.88 338.32 324.88 341.72 353.36 365 361.56 349.28 361.24 366 344.68 334.04 328.64 316.36 311.12 304.32 280.72 276.96 296.6 283.48 260.12 239.96 303.88 326.44 296.96 283.12 262.48 276.64 286.84 309.12 324.76 327.6 328.32 297.76 287.88 315.04 331.52 346.4 344.68 334.36 358.16 384.76 384.04 357.04 342.24 348.64 365.6 407.48 436.56 408.36 392.52 418.36 401.88 439.76 441 410.84 401.4 462.44 433.72 433.92 428.8 402.4 412.2 408.64 395.08 361.52 408.68 424.32 428.52 410.44 358.56 334.44 324.56 298.08 274.32 265.28 249.84 228.96 252 280.36 294.52 231.24 183.48 199.8 272 311.2 283.08 245.6 225.88 197.84 188.2 149.24 112.52 120.56 141.64 129.76 82.16 73.32 74.68 71.84 67.76 63 63.92 60.56 59.88 61.04 64.4 65.08 64.68 65.08 64.12 71.44 81.28 75.84 64.36 71 87.2 116.76 106.24 124.08 130.88 131.84 136.52 142.4 135.76 135.24 120.44 137.92 165.6 161.52 146.24 165.52 150.68 125.12 139.88 161.84 194.6 191.44 214.96 223.28 251.56 292.12 303.84 322.72 354.36 383.48 423.96 498.92 535.96 414.36 355.84 306 299.16 334.48 358.32 353.64 327.4 310.04 304.44 295.72 304.44 346.6 367.28 385.84 396.4 432.4 423.88 392.84 426.56 446.56 409.32 371.64 307.96 348.12 322.36 291.92 282.52 214.56 201.4 216.6 243.2 301.88 228.44 239.56 252.88 255.32 288.76 259 284.28 291.48 263.88 250.04 233.96 245.96 221.64 235.4 219.36 226.28 217.32 228.48 238.92 217.68 206.96 198.4 189.8 188.12 220.4 187.88 174.76 177.84 174.24 159.64 152.88 150.52 157.4 154.84 154.56 148.32 157.88 133.88 147.8 168.12 173.08 151.36 138.48 136.64 146.2 135.84 117.16 116.72 117.88 129.72 170 181.2 165.88 183.88 219 232 208.28 209.6 202.92 219.48 237.88 434.04 457.32 494.52 537.96 471.08 526.96 516.2 470.76 426.52 396.28 416 391.24 393.88 379.64 358.08 394.76 373.24 339.96 299.64 298.92 271.32 321.28 373.84 459.8 685.24 713.32 382.2 299.2 303.96 269.08 262.36 366.16 611.08 247.84 202.72 213.36 260.28 385.56 519.12 547.32 467.24 351.92 288.24 353.2 352.2 302.28 304.48 266.92 265.84 273.44 246.48 236.36 228.52 236.24 226.96 230.28 217.92 213.32 213 213.16 213.88 215.28 229.52 242.8 263.56 281.4 293.92 279.8 287.36 305.68 325.16 319.76 339.96 358.76 379.84 397.84 397.52 391.52 392.32 362.12 399.88 419.48 439.6 452.84 420.92 412.16 425.04 422.92 427.28 453.12 467.28 455.28 428.48 417.92 411.96 414.04 413.88 399.92 392.36 391.8 390.56 386.32 403.96 422.76 427.08 410.04 405.64 400 418.96 461.4 487.24 472.72 508.68 538.04 527.16 521.96 500.8 499 492.24 472.36 446.56 419.4 391.6 371.84 374.64 378.32 375.28 376.68 378.24 379.12 380.12 382.76 382.28
102.88 156.4 187.84 170.76 140.32 168.28 164 141.4 157.72 172.24 208.96 483.96 340.12 369.12 335.76 385.4 407.72 442.76 457.28 438.88 405.48 397.24 371.96 337.36 316.12 324.68 299.6 314.92 328.72 327.8 348.2 359.36 348.96 356.72 346.24 345.52 358.52 358.08 331.68 313.44 305.04 296.96 284.64 273.84 263.08 261.4 258.36 246.64 237.36 331 312.52 297.36 264.72 254.4 263.96 280.84 303.76 319.2 307.04 320.28 297.72 284.28 311.44 322.04 331.08 316.92 343.64 357.84 357.28 356.16 341.68 353.96 376.32 384.92 404.96 415.76 424.48 415.88 421.12 414.36 455.4 433.68 399.24 379.24 429.44 402.8 408.92 445.8 419.72 440.88 424 379.68 385.56 393.76 432.44 406.84 389.76 386.32 376.72 359.68 310.16 278.2 252.08 264.6 255.56 246.96 280.16 298.2 254.2 209.04 189.2 235.12 303.28 328.84 285.96 233.76 176.16 130.4 124.96 154.2 155.16 174.72 172.92 138.76 111.2 83.08 83.04 71 64.92 62.24 61.48 59.16 58.08 60.92 63.04 62.44 63.4 63.8 62.88 64.6 63.2 61.2 61.72 63.28 76.72 96.08 124.4 109.6 128.8 160.32 155.32 119.76 132.56 114.24 144.68 168.8 167.2 128.68 119.24 114.72 134.36 160.32 175.08 194.72 198.44 244.56 382.12 316.6 288.4 343.08 331.2 351.48 395.6 449.36 549.68 545.08 423.88 321.8 294.12 298.16 356.72 357.24 342.84 324.12 303 289.36 282.32 298.92 333.28 353.52 381.92 379.12 391.64 396.32 378.12 367.52 439.92 412.72 359.08 274.2 288.76 259.52 225.92 200.36 192.6 183.92 200.64 189.92 200.08 213.76 212.68 223.68 242.68 253.32 239.64 260.88 243.88 257.04 250.56 223.68 216.48 205 216.8 202.52 203 221.08 225.48 211.84 202.08 181.44 191.2 178.44 197.68 207.8 183.84 164.72 169.28 156.88 162.72 155.6 139.44 142.8 149.68 140.08 142.92 153.96 136.08 143.4 150.84 161.6 170.32 155.2 137.92 127.84 127.88 116.12 116.52 130.36 167.84 186.08 204.48 181.56 170.08 202.52 196.68 222.08 236.48 221.28 213.56 241 274.84 535.32 667.72 764.68 532.84 539.56 527.64 489.88 441.68 422.04 447.56 490.16 419.52 393.16 382.6 398.16 370.52 338.96 335.32 341.44 298.8 300.52 355.88 409.96 508.08 563.52 396.28 346.12 310.2 291.6 281.12 428.76 859.2 264.48 204.56 218.16 227.76 282.08 416.2 495.32 465.6 433.16 342.44 418.56 415.92 341.84 310.08 275.56 277.36 280.32 264.84 268.08 251.88 248.16 242.48 231.6 213.4 218.04 214 215.4 215.8 221.4 216.72 221.08 242.32 275.68 262.04 263.28 285.76 322.08 314.44 322.68 334.96 357.68 369.28 374.32 365.52 358 350.6 355.92 396.4 395.52 416.08 413.24 426.72 435.76 445.92 443.84 458.12 473 448.2 436.08 427.84 434.72 422.32 407.72 401.72 399.12 411.8 425.2 422.76 413.96 398.68 403.92 425.08 434.68 434 430.8 422.04 465.08 483.24 451.52 488.84 501.28 498.36 528.56 523.72 496.08 485.92 479.4 463.76 435.4 407.96 376.4 376.64 383.84 377.28 379.92 383.08 382.36 382.68 382.96 383.8
