NCOLS 232
NROWS 24
XLLCORNER 0.45826115
YLLCORNER 7.9166395
CELLSIZE 0.04166665 
NODATA_value -9999 
182.720001220703 157.679992675781 155.039993286133 154 205.520004272461 413.320007324219 354.679992675781 309.720001220703 285.119995117188 310.839996337891 335.320007324219 444.640014648438 557.080017089844 460.040008544922 393.519989013672 361.239990234375 353.160003662109 328.920013427734 338.359985351562 334.920013427734 304.279998779297 316.880004882812 338.320007324219 324.880004882812 341.720001220703 353.359985351562 365 361.559997558594 349.279998779297 361.239990234375 366 344.679992675781 334.040008544922 328.640014648438 316.359985351562 311.119995117188 304.320007324219 280.720001220703 276.959991455078 296.600006103516 283.480010986328 260.119995117188 239.960006713867 303.880004882812 326.440002441406 296.959991455078 283.119995117188 262.480010986328 276.640014648438 286.839996337891 309.119995117188 324.760009765625 327.600006103516 328.320007324219 297.760009765625 287.880004882812 315.040008544922 331.519989013672 346.399993896484 344.679992675781 334.359985351562 358.160003662109 384.760009765625 384.040008544922 357.040008544922 342.239990234375 348.640014648438 365.600006103516 407.480010986328 436.559997558594 408.359985351562 392.519989013672 418.359985351562 401.880004882812 439.760009765625 441 410.839996337891 401.399993896484 462.440002441406 433.720001220703 433.920013427734 428.799987792969 402.399993896484 412.200012207031 408.640014648438 395.079986572266 361.519989013672 408.679992675781 424.320007324219 428.519989013672 410.440002441406 358.559997558594 334.440002441406 324.559997558594 298.079986572266 274.320007324219 265.279998779297 249.839996337891 228.960006713867 252 280.359985351562 294.519989013672 231.240005493164 183.479995727539 199.800003051758 272 311.200012207031 283.079986572266 245.600006103516 225.880004882812 197.839996337891 188.199996948242 149.240005493164 112.519996643066 120.559997558594 141.639999389648 129.759994506836 82.1600036621094 73.3199996948242 74.6800003051758 71.8399963378906 67.7600021362305 63 63.9199981689453 60.560001373291 59.8800010681152 61.0400009155273 64.4000015258789 65.0800018310547 64.6800003051758 65.0800018310547 64.120002746582 71.4400024414062 81.2799987792969 75.8399963378906 64.3600006103516 71 87.1999969482422 116.76000213623 106.23999786377 124.080001831055 130.880004882812 131.839996337891 136.520004272461 142.399993896484 135.759994506836 135.240005493164 120.440002441406 137.919998168945 165.600006103516 161.520004272461 146.240005493164 165.520004272461 150.679992675781 125.120002746582 139.880004882812 161.839996337891 194.600006103516 191.440002441406 214.960006713867 223.279998779297 251.559997558594 292.119995117188 303.839996337891 322.720001220703 354.359985351562 383.480010986328 423.959991455078 498.920013427734 535.960021972656 414.359985351562 355.839996337891 306 299.160003662109 334.480010986328 358.320007324219 353.640014648438 327.399993896484 310.040008544922 304.440002441406 295.720001220703 304.440002441406 346.600006103516 367.279998779297 385.839996337891 396.399993896484 432.399993896484 423.880004882812 392.839996337891 426.559997558594 446.559997558594 409.320007324219 371.640014648438 307.959991455078 348.119995117188 322.359985351562 291.920013427734 282.519989013672 214.559997558594 201.399993896484 216.600006103516 243.199996948242 301.880004882812 228.440002441406 239.559997558594 252.880004882812 255.320007324219 288.760009765625 259 284.279998779297 291.480010986328 263.880004882812 250.039993286133 233.960006713867 245.960006713867 221.639999389648 235.399993896484 219.360000610352 226.279998779297 217.320007324219 228.479995727539 238.919998168945 217.679992675781 206.960006713867 198.399993896484 189.800003051758 188.119995117188 220.399993896484 187.880004882812 174.759994506836 177.839996337891 174.240005493164
164 141.399993896484 157.720001220703 172.240005493164 208.960006713867 483.959991455078 340.119995117188 369.119995117188 335.760009765625 385.399993896484 407.720001220703 442.760009765625 457.279998779297 438.880004882812 405.480010986328 397.239990234375 371.959991455078 337.359985351562 316.119995117188 324.679992675781 299.600006103516 314.920013427734 328.720001220703 327.799987792969 348.200012207031 359.359985351562 348.959991455078 356.720001220703 346.239990234375 345.519989013672 358.519989013672 358.079986572266 331.679992675781 313.440002441406 305.040008544922 296.959991455078 284.640014648438 273.839996337891 263.079986572266 261.399993896484 258.359985351562 246.639999389648 237.360000610352 331 312.519989013672 297.359985351562 264.720001220703 254.399993896484 263.959991455078 280.839996337891 303.760009765625 319.200012207031 307.040008544922 320.279998779297 297.720001220703 284.279998779297 311.440002441406 322.040008544922 331.079986572266 316.920013427734 343.640014648438 357.839996337891 357.279998779297 356.160003662109 341.679992675781 353.959991455078 376.320007324219 384.920013427734 404.959991455078 415.760009765625 424.480010986328 415.880004882812 421.119995117188 414.359985351562 455.399993896484 433.679992675781 399.239990234375 379.239990234375 429.440002441406 402.799987792969 408.920013427734 445.799987792969 419.720001220703 440.880004882812 424 379.679992675781 385.559997558594 393.760009765625 432.440002441406 406.839996337891 389.760009765625 386.320007324219 376.720001220703 359.679992675781 310.160003662109 278.200012207031 252.080001831055 264.600006103516 255.559997558594 246.960006713867 280.160003662109 298.200012207031 254.199996948242 209.039993286133 189.199996948242 235.119995117188 303.279998779297 328.839996337891 285.959991455078 233.759994506836 176.160003662109 130.399993896484 124.959999084473 154.199996948242 155.160003662109 174.720001220703 172.919998168945 138.759994506836 111.199996948242 83.0800018310547 83.0400009155273 71 64.9199981689453 62.2400016784668 61.4799995422363 59.1599998474121 58.0800018310547 60.9199981689453 63.0400009155273 62.439998626709 63.4000015258789 63.7999992370605 62.8800010681152 64.5999984741211 63.2000007629395 61.2000007629395 61.7200012207031 63.2799987792969 76.7200012207031 96.0800018310547 124.400001525879 109.599998474121 128.800003051758 160.320007324219 155.320007324219 119.76000213623 132.559997558594 114.23999786377 144.679992675781 168.800003051758 167.199996948242 128.679992675781 119.23999786377 114.720001220703 134.360000610352 160.320007324219 175.080001831055 194.720001220703 198.440002441406 244.559997558594 382.119995117188 316.600006103516 288.399993896484 343.079986572266 331.200012207031 351.480010986328 395.600006103516 449.359985351562 549.679992675781 545.080017089844 423.880004882812 321.799987792969 294.119995117188 298.160003662109 356.720001220703 357.239990234375 342.839996337891 324.119995117188 303 289.359985351562 282.320007324219 298.920013427734 333.279998779297 353.519989013672 381.920013427734 379.119995117188 391.640014648438 396.320007324219 378.119995117188 367.519989013672 439.920013427734 412.720001220703 359.079986572266 274.200012207031 288.760009765625 259.519989013672 225.919998168945 200.360000610352 192.600006103516 183.919998168945 200.639999389648 189.919998168945 200.080001831055 213.759994506836 212.679992675781 223.679992675781 242.679992675781 253.320007324219 239.639999389648 260.880004882812 243.880004882812 257.040008544922 250.559997558594 223.679992675781 216.479995727539 205 216.800003051758 202.520004272461 203 221.080001831055 225.479995727539 211.839996337891 202.080001831055 181.440002441406 191.199996948242 178.440002441406 197.679992675781 207.800003051758 183.839996337891 164.720001220703 169.279998779297 156.880004882812
136.679992675781 144.800003051758 166.639999389648 187 223.039993286133 497.720001220703 403.200012207031 410.200012207031 412.239990234375 428.760009765625 509 460.040008544922 403.679992675781 397.480010986328 395.480010986328 390.200012207031 364.399993896484 348.880004882812 315.880004882812 307.920013427734 291.320007324219 312.119995117188 320.119995117188 323.839996337891 342.799987792969 354.720001220703 336.640014648438 348.519989013672 353.760009765625 333.720001220703 353.640014648438 351.160003662109 342.799987792969 333.119995117188 325.559997558594 313.600006103516 292.119995117188 295.920013427734 287.079986572266 277.440002441406 252.919998168945 235.479995727539 280.279998779297 349.119995117188 288.239990234375 297.720001220703 260.359985351562 247.199996948242 273.480010986328 290.600006103516 308.480010986328 331.839996337891 314.519989013672 295.399993896484 284.640014648438 280.480010986328 310.239990234375 316 306.799987792969 316.519989013672 332.799987792969 343.119995117188 353.720001220703 336.720001220703 328.040008544922 340.279998779297 378.320007324219 377.399993896484 387.760009765625 415.959991455078 432.799987792969 449.799987792969 436.040008544922 437.480010986328 437.160003662109 432.079986572266 404.160003662109 371.040008544922 387.839996337891 384.880004882812 423.399993896484 434.119995117188 444.399993896484 433.679992675781 406.679992675781 391.839996337891 419.519989013672 430.679992675781 424.320007324219 417.799987792969 359.399993896484 358.320007324219 367.440002441406 324.679992675781 276.799987792969 284.679992675781 277.239990234375 302.359985351562 283.399993896484 259.799987792969 298.760009765625 266.119995117188 230.639999389648 211.720001220703 200.360000610352 225.119995117188 256.279998779297 313.640014648438 273.559997558594 222.199996948242 170.880004882812 153.279998779297 172.600006103516 198.919998168945 196.759994506836 217.080001831055 193.559997558594 161 113.279998779297 104.879997253418 144.199996948242 109.839996337891 81.7600021362305 65.6800003051758 62.4000015258789 62.3600006103516 59.8800010681152 60.5200004577637 62.439998626709 60.1599998474121 57.9599990844727 60.4799995422363 61.1199989318848 59.1199989318848 56.3199996948242 56.1199989318848 58.9199981689453 56.3600006103516 56.3199996948242 66.8399963378906 118.23999786377 101.120002746582 135.399993896484 189.600006103516 142.880004882812 113.680000305176 113.76000213623 115.400001525879 172.479995727539 226.080001831055 189.919998168945 143.639999389648 102.400001525879 138.240005493164 155.440002441406 157.559997558594 157.199996948242 186.559997558594 218.839996337891 302.040008544922 349.959991455078 376.079986572266 351.079986572266 388.519989013672 399.839996337891 392.920013427734 405.160003662109 495.920013427734 617.679992675781 578.280029296875 346.279998779297 481.920013427734 280.040008544922 290.640014648438 322.399993896484 332.440002441406 313.600006103516 300.440002441406 293.519989013672 275.320007324219 283.880004882812 295.279998779297 318.160003662109 354.519989013672 371.359985351562 363.480010986328 350.720001220703 306.799987792969 327.959991455078 523.840026855469 742.320007324219 658.919982910156 450.519989013672 281.320007324219 241.759994506836 221.800003051758 220.320007324219 227.720001220703 213.320007324219 196.960006713867 166.839996337891 188.919998168945 214.279998779297 193.240005493164 196.240005493164 201 203.679992675781 215.279998779297 230.880004882812 214.160003662109 206.720001220703 229.199996948242 260.480010986328 236.119995117188 218.479995727539 196.039993286133 193.039993286133 192.559997558594 211.800003051758 226.880004882812 206.080001831055 189.440002441406 168.240005493164 177.960006713867 210.080001831055 188.520004272461 171.440002441406 191 175.520004272461 157.199996948242 163.279998779297 143.880004882812
147.240005493164 152.839996337891 165.440002441406 180.039993286133 226.080001831055 537.320007324219 500.079986572266 504.200012207031 475.640014648438 501.880004882812 512.440002441406 462.600006103516 422.920013427734 375.839996337891 362.440002441406 350.760009765625 342.279998779297 326.839996337891 305.720001220703 287.160003662109 286.320007324219 311.880004882812 318.480010986328 329.040008544922 338.839996337891 342.519989013672 325.239990234375 345.200012207031 351.760009765625 331.359985351562 343.519989013672 327 329.959991455078 318.959991455078 316.920013427734 309.600006103516 316.880004882812 308.720001220703 301 283.519989013672 248.880004882812 229.839996337891 339.079986572266 317.880004882812 285.920013427734 261.640014648438 259.079986572266 242.479995727539 268.640014648438 297.040008544922 291.440002441406 316.959991455078 333.519989013672 309.720001220703 280.079986572266 298.920013427734 300.679992675781 299.600006103516 319.640014648438 336.239990234375 347.160003662109 337.880004882812 337.079986572266 322.200012207031 339.920013427734 354.480010986328 362.679992675781 372.760009765625 400.880004882812 402.760009765625 441.600006103516 448.440002441406 417.239990234375 400.600006103516 406.760009765625 432.160003662109 379.320007324219 356.799987792969 370.399993896484 388.119995117188 426.760009765625 407.959991455078 414.279998779297 438.200012207031 444.600006103516 409.959991455078 436.880004882812 410.359985351562 371.920013427734 371.920013427734 338.519989013672 321.320007324219 335.279998779297 295.359985351562 281.320007324219 328.279998779297 309.480010986328 290.799987792969 273.559997558594 270.160003662109 287.760009765625 266.320007324219 254.800003051758 249.600006103516 236.320007324219 223.759994506836 251.039993286133 267.160003662109 243.199996948242 191.600006103516 157.839996337891 180.320007324219 233.199996948242 230.479995727539 254.800003051758 235.639999389648 195.479995727539 140.960006713867 108.040000915527 142.320007324219 177.440002441406 153.479995727539 131.479995727539 107.959999084473 96.1600036621094 71.5199966430664 61.7599983215332 58.5999984741211 61 61.4799995422363 58.4799995422363 59.6800003051758 58.4000015258789 58.5999984741211 56.4000015258789 55.8800010681152 57.6800003051758 57.7200012207031 54.2400016784668 52.8800010681152 81 112.720001220703 151.039993286133 145.279998779297 118.080001831055 107.720001220703 100.720001220703 136.160003662109 178.960006713867 223.520004272461 191.440002441406 128.279998779297 93 143 137.919998168945 172.080001831055 179.759994506836 281.440002441406 276.160003662109 262.760009765625 247.600006103516 217.960006713867 314.519989013672 386.160003662109 429.040008544922 474.480010986328 462.679992675781 559.760009765625 724.880004882812 662.159973144531 357.040008544922 343.200012207031 269.200012207031 289.079986572266 272.600006103516 280.200012207031 289.040008544922 280.559997558594 288.239990234375 269.399993896484 297.880004882812 330.320007324219 341.359985351562 341.320007324219 355.679992675781 350.640014648438 282.720001220703 230.919998168945 274.720001220703 456.640014648438 567.440002441406 569.119995117188 492.760009765625 327.320007324219 275.600006103516 255.600006103516 256.040008544922 236.279998779297 204.720001220703 191 174.839996337891 175.039993286133 178.800003051758 166.279998779297 193.399993896484 194.039993286133 211.880004882812 233.880004882812 212.679992675781 206.520004272461 188.399993896484 214.679992675781 239.759994506836 226.279998779297 220.759994506836 199.600006103516 181.720001220703 191.600006103516 221.240005493164 210.960006713867 180.880004882812 163.160003662109 159.039993286133 187.399993896484 208.080001831055 190.919998168945 163.960006713867 182.399993896484 177.800003051758 153.479995727539 165.559997558594 155.399993896484
164.520004272461 169.800003051758 183.279998779297 182.160003662109 275.720001220703 660.559997558594 565.47998046875 599.960021972656 488.160003662109 480 500.519989013672 448.679992675781 422.959991455078 376.440002441406 362.880004882812 344.040008544922 321.920013427734 306.160003662109 294.160003662109 274.119995117188 300.559997558594 324.399993896484 312 309.920013427734 316.320007324219 320.399993896484 318 335.160003662109 338.679992675781 323.279998779297 332.799987792969 308.480010986328 324.920013427734 314.320007324219 302.880004882812 298.720001220703 309.279998779297 294.440002441406 294.600006103516 295.200012207031 257.839996337891 237.679992675781 260.440002441406 268.760009765625 277.679992675781 257.359985351562 251.520004272461 234.559997558594 271.679992675781 271.040008544922 274.839996337891 296.079986572266 318.959991455078 314.519989013672 290.600006103516 276.119995117188 283.600006103516 315.440002441406 335.679992675781 348.760009765625 331.559997558594 312.559997558594 315.640014648438 327.959991455078 343.119995117188 355.720001220703 386.959991455078 391.399993896484 386.119995117188 406.279998779297 420.359985351562 427.679992675781 407.760009765625 390.279998779297 381.160003662109 400.920013427734 351.640014648438 369.200012207031 387.880004882812 389.079986572266 411.200012207031 393.720001220703 426 443.519989013672 461.359985351562 428.480010986328 417 390.760009765625 369.640014648438 334.440002441406 321.399993896484 296.799987792969 300.359985351562 274.279998779297 308.320007324219 351.079986572266 318.839996337891 283.320007324219 260.359985351562 305.519989013672 304.399993896484 327.920013427734 299.519989013672 288.519989013672 283.079986572266 254.600006103516 300.440002441406 239.479995727539 224.479995727539 196.839996337891 170.160003662109 191.559997558594 240.320007324219 291.720001220703 251.360000610352 195.080001831055 162.320007324219 143.160003662109 147.399993896484 169.559997558594 202.520004272461 162.399993896484 156.639999389648 131.639999389648 144.360000610352 118.680000305176 104.319999694824 89.8000030517578 73.5999984741211 68.5199966430664 65.3600006103516 73.1600036621094 99.4000015258789 146 79.9599990844727 57.5999984741211 56.2000007629395 56.3199996948242 55.7200012207031 53.8400001525879 55.560001373291 77.879997253418 109.680000305176 139.320007324219 104.959999084473 93.120002746582 118.480003356934 152.199996948242 186.119995117188 172.119995117188 163.199996948242 141.520004272461 80.879997253418 128 195.080001831055 164.279998779297 182.960006713867 207.399993896484 179.160003662109 187.039993286133 198.279998779297 239.839996337891 258.880004882812 379.480010986328 497.679992675781 514.679992675781 539.679992675781 592.719970703125 657.599975585938 585.559997558594 320.880004882812 280.519989013672 253.559997558594 276.640014648438 242.919998168945 267.880004882812 285.160003662109 269.279998779297 285.079986572266 259.480010986328 279.760009765625 306.679992675781 322.200012207031 334.279998779297 347.399993896484 293.839996337891 211.600006103516 182.960006713867 200.880004882812 340.600006103516 475.839996337891 404.239990234375 328.079986572266 304.640014648438 267.239990234375 217.679992675781 221.960006713867 203.639999389648 190.960006713867 176.160003662109 153.479995727539 175.039993286133 156.880004882812 163.160003662109 168.639999389648 168.119995117188 181.639999389648 200.479995727539 187.080001831055 181.679992675781 181.520004272461 191.240005493164 219.039993286133 207.399993896484 204.360000610352 201.479995727539 177.240005493164 184.240005493164 204.399993896484 191.479995727539 162.479995727539 148.199996948242 165.279998779297 186.759994506836 196.080001831055 184.679992675781 161.479995727539 165.039993286133 170.240005493164 147.880004882812 161.880004882812 152.960006713867
177.479995727539 190.639999389648 203.559997558594 217.279998779297 438.920013427734 668.320007324219 608.599975585938 606.719970703125 477.679992675781 457.760009765625 439.119995117188 425.880004882812 421.799987792969 411.160003662109 366.160003662109 343.640014648438 329.119995117188 299.600006103516 276.720001220703 269.440002441406 289 314.239990234375 318.160003662109 295 303.200012207031 304.679992675781 305.959991455078 321.679992675781 325.880004882812 318.279998779297 314.760009765625 297.200012207031 300.640014648438 297.320007324219 291.320007324219 283.399993896484 293.679992675781 278.079986572266 285.160003662109 280.600006103516 265.920013427734 239.119995117188 240.360000610352 247.160003662109 258 247.360000610352 244.839996337891 227.600006103516 247.720001220703 260.959991455078 281.040008544922 305.799987792969 305.880004882812 300.760009765625 268.279998779297 277.119995117188 299.880004882812 313.519989013672 326.839996337891 321.119995117188 313.320007324219 336.160003662109 355.559997558594 337.160003662109 341.839996337891 371.720001220703 391 377.720001220703 371.600006103516 386.160003662109 453.359985351562 409.119995117188 396.880004882812 365.640014648438 356.959991455078 368.040008544922 351.440002441406 377.880004882812 370.679992675781 369.119995117188 388.359985351562 404.600006103516 420.559997558594 437.720001220703 456.880004882812 419.279998779297 367.679992675781 359.320007324219 350.399993896484 343.959991455078 312 304.440002441406 293.600006103516 302.760009765625 327.399993896484 344 337.320007324219 318.720001220703 272.880004882812 314.799987792969 323.200012207031 351.679992675781 335.399993896484 300.600006103516 264.880004882812 312.959991455078 312 219.279998779297 202.600006103516 182.759994506836 181.759994506836 218.080001831055 240.880004882812 248.720001220703 219.360000610352 183.479995727539 154 149.119995117188 179.320007324219 169.080001831055 213 192.399993896484 156.919998168945 165.639999389648 168.600006103516 133.679992675781 130.679992675781 136.679992675781 122.76000213623 120.279998779297 124.599998474121 119.639999389648 135.360000610352 177.720001220703 123.76000213623 82.4000015258789 62.2799987792969 63.2799987792969 61.4000015258789 56.2000007629395 53.560001373291 51.6800003051758 75.7600021362305 120.360000610352 91.0400009155273 131.279998779297 153.600006103516 147.720001220703 174.880004882812 155.479995727539 150.800003051758 129.440002441406 84.1999969482422 160.600006103516 172.520004272461 127.160003662109 141.960006713867 184.440002441406 184.160003662109 215.600006103516 236.320007324219 254.759994506836 293.119995117188 337.200012207031 380.559997558594 496.600006103516 557.239990234375 557.799987792969 593.799987792969 468.920013427734 296 265.799987792969 233.880004882812 252.960006713867 235.399993896484 258.760009765625 266 260.480010986328 262.079986572266 254.399993896484 270.440002441406 301.119995117188 313.600006103516 323 346.559997558594 272.480010986328 179.800003051758 165.160003662109 184.559997558594 185.520004272461 164.240005493164 172.399993896484 202.240005493164 219.759994506836 218.800003051758 185.279998779297 172.759994506836 165.399993896484 155.080001831055 148.800003051758 144.320007324219 144.600006103516 137.320007324219 140.600006103516 145.240005493164 150.440002441406 168.080001831055 190.600006103516 168.039993286133 160.679992675781 190.240005493164 184.559997558594 215.240005493164 184.119995117188 196.160003662109 199.119995117188 167 163.800003051758 166.639999389648 166.880004882812 150.199996948242 146.679992675781 167.119995117188 185.199996948242 176.199996948242 183.960006713867 162.479995727539 146.720001220703 157.639999389648 146.479995727539 160.520004272461 151.559997558594
191.600006103516 191.399993896484 210.080001831055 245.119995117188 508.559997558594 601.52001953125 614.400024414062 568.799987792969 501.040008544922 503.839996337891 444.119995117188 396.320007324219 398.959991455078 398.799987792969 352.480010986328 317.480010986328 310.239990234375 305.239990234375 276.839996337891 269.160003662109 300.040008544922 324.559997558594 309.320007324219 284.239990234375 293.200012207031 295.799987792969 295.359985351562 306.119995117188 325.079986572266 310.440002441406 300.040008544922 283.279998779297 277 293 279.679992675781 269.480010986328 284.279998779297 275.760009765625 263.839996337891 249.679992675781 255.600006103516 254.720001220703 219.919998168945 256.839996337891 251.119995117188 234.080001831055 222.679992675781 214.119995117188 243.800003051758 265.959991455078 296.559997558594 309.519989013672 294.160003662109 291.519989013672 272.079986572266 272.239990234375 286.399993896484 288.200012207031 307 303.040008544922 333.200012207031 355.119995117188 384.480010986328 359.399993896484 357.399993896484 372.279998779297 382.359985351562 356.320007324219 354.559997558594 359.640014648438 467.440002441406 464.359985351562 426.920013427734 386.519989013672 365.839996337891 348.839996337891 338.880004882812 344.200012207031 351.760009765625 377.200012207031 379.880004882812 399.640014648438 403.399993896484 437.200012207031 459.040008544922 414.480010986328 367.279998779297 349.920013427734 326.559997558594 319.440002441406 307.440002441406 331.279998779297 306.760009765625 346.480010986328 347.119995117188 322.880004882812 308.079986572266 301.279998779297 274.279998779297 293.679992675781 306.119995117188 344.959991455078 347.559997558594 275.600006103516 334.920013427734 330.640014648438 276.640014648438 227 208.880004882812 211.279998779297 234.559997558594 255.679992675781 258.279998779297 221.279998779297 195.720001220703 166.759994506836 171.800003051758 175 216.440002441406 216.679992675781 248.960006713867 249.199996948242 197.039993286133 190.240005493164 168.399993896484 159.039993286133 162.039993286133 175.759994506836 160.479995727539 127.279998779297 116.23999786377 108.360000610352 105.040000915527 130.720001220703 133.119995117188 118.839996337891 102.120002746582 67.9199981689453 63.8800010681152 58.5999984741211 55.9599990844727 53.0400009155273 50.9199981689453 108 107.639999389648 128.839996337891 127.720001220703 146.320007324219 186.160003662109 174.800003051758 156.399993896484 127.23999786377 92.6800003051758 151.800003051758 114.360000610352 175.080001831055 189.199996948242 169.880004882812 174.679992675781 221.160003662109 216.440002441406 261.079986572266 277.640014648438 319.640014648438 331.480010986328 365.480010986328 566.080017089844 576.47998046875 549.719970703125 395.880004882812 295.920013427734 274.959991455078 227.160003662109 237.679992675781 224.600006103516 245.639999389648 249.960006713867 238.320007324219 238.960006713867 257.119995117188 276.359985351562 282.839996337891 304.160003662109 327.760009765625 341.959991455078 225.039993286133 152 152.080001831055 185.960006713867 143.440002441406 163.960006713867 170.679992675781 174.399993896484 160.800003051758 182 193.399993896484 184.960006713867 178.399993896484 168.360000610352 171.720001220703 152.520004272461 147.320007324219 156.119995117188 145.440002441406 147.039993286133 175.880004882812 184.479995727539 192.479995727539 161.199996948242 175.240005493164 179.479995727539 168.279998779297 195.080001831055 174.479995727539 154.639999389648 167.199996948242 163.240005493164 148.360000610352 142.919998168945 154.039993286133 146.800003051758 141.520004272461 154.960006713867 169.240005493164 175.399993896484 160.119995117188 170.240005493164 154.320007324219 138.720001220703 132.839996337891 143.520004272461 133.839996337891
172.919998168945 191.440002441406 213.639999389648 270.079986572266 571.599975585938 548 586.359985351562 520.039978027344 469.799987792969 465.559997558594 415.359985351562 388.160003662109 380.160003662109 384.200012207031 335.079986572266 308.160003662109 284.440002441406 294.320007324219 278.200012207031 263.079986572266 286.720001220703 320.160003662109 320 283.320007324219 287.160003662109 278.079986572266 289.160003662109 320.640014648438 321.559997558594 303.760009765625 291.880004882812 299.880004882812 280.839996337891 268.559997558594 271.480010986328 265.399993896484 268.519989013672 272.239990234375 276.279998779297 242.639999389648 245.639999389648 241.279998779297 211 249.039993286133 249.919998168945 222.320007324219 207.639999389648 223 234.399993896484 260.920013427734 290.079986572266 310.480010986328 313.519989013672 304.040008544922 270.160003662109 262.480010986328 273.959991455078 286.839996337891 301.200012207031 320.440002441406 329.399993896484 356.079986572266 380.119995117188 377.600006103516 386.440002441406 368.880004882812 375.279998779297 368.600006103516 349.799987792969 337.760009765625 429.640014648438 480.839996337891 423.480010986328 399.200012207031 388.839996337891 379.959991455078 376.239990234375 331.640014648438 344.079986572266 367.720001220703 369.440002441406 388.320007324219 395.720001220703 419.760009765625 433.720001220703 422.920013427734 381.799987792969 368.760009765625 341.920013427734 320.480010986328 327.920013427734 308.160003662109 317.200012207031 336.359985351562 361.480010986328 335.559997558594 325.399993896484 314.160003662109 275.399993896484 288.880004882812 309.359985351562 340.079986572266 358.760009765625 300.920013427734 365.119995117188 315.239990234375 262.720001220703 239.080001831055 250.759994506836 264.799987792969 296.320007324219 300.720001220703 281.239990234375 248.320007324219 204.240005493164 165.320007324219 217.240005493164 215.240005493164 227.520004272461 293.720001220703 286.600006103516 291.559997558594 255.240005493164 230.600006103516 218.360000610352 200.320007324219 189.279998779297 157.080001831055 143.279998779297 122.839996337891 118.76000213623 111.440002441406 102.400001525879 89.8000030517578 85.9599990844727 81.3199996948242 84.7200012207031 71.7200012207031 74.7200012207031 61.1599998474121 55.9199981689453 51.0800018310547 51.0800018310547 146.600006103516 116.879997253418 113.879997253418 125.919998168945 142.360000610352 171.360000610352 195.520004272461 179.800003051758 191.399993896484 100.160003662109 100.040000915527 113.519996643066 146.720001220703 232.759994506836 255.800003051758 197.919998168945 222.360000610352 280.839996337891 265.839996337891 293.600006103516 340.920013427734 372.359985351562 407.799987792969 491.079986572266 477.160003662109 403.440002441406 392.799987792969 329.040008544922 277.079986572266 234 213.399993896484 230.679992675781 226 227.839996337891 223.880004882812 245.039993286133 255.520004272461 264.359985351562 281.839996337891 314.320007324219 270.359985351562 244.559997558594 189.399993896484 136.720001220703 139.320007324219 134.880004882812 127.279998779297 124.919998168945 140.320007324219 149.160003662109 144 163.880004882812 192.119995117188 210.199996948242 214.240005493164 209.399993896484 200.800003051758 179.800003051758 165.720001220703 145.839996337891 134.520004272461 130.119995117188 140 146.520004272461 155.360000610352 137.479995727539 151.440002441406 152.600006103516 174.119995117188 177 158.839996337891 138.960006713867 154.759994506836 174.639999389648 156 138.759994506836 137.279998779297 144.279998779297 131.279998779297 151.119995117188 162.639999389648 157.839996337891 151.279998779297 163.559997558594 157.440002441406 149.080001831055 131.039993286133 121.720001220703 120.440002441406
187.759994506836 186.080001831055 197.520004272461 249.080001831055 391.559997558594 443.559997558594 519 492.480010986328 474.480010986328 451.239990234375 400.040008544922 374.399993896484 379.920013427734 394.359985351562 349.839996337891 325.720001220703 292.519989013672 266.359985351562 267.279998779297 256.399993896484 286.440002441406 313.720001220703 320 288.679992675781 278.679992675781 268.839996337891 292.799987792969 316.959991455078 300.040008544922 299.559997558594 307.519989013672 307.399993896484 294.720001220703 280.959991455078 259.279998779297 250 251 257.720001220703 262.399993896484 231.440002441406 247.199996948242 230 207.600006103516 225.919998168945 225.559997558594 214.160003662109 194.839996337891 209.960006713867 225.800003051758 242.839996337891 262 279.480010986328 303.040008544922 310.239990234375 277.799987792969 255.360000610352 293.239990234375 312.399993896484 337.679992675781 321.480010986328 319.160003662109 340.079986572266 376.959991455078 349.279998779297 366.839996337891 352.519989013672 371.239990234375 348 384.839996337891 328.600006103516 363.239990234375 432.920013427734 413.160003662109 400.959991455078 383.200012207031 392.279998779297 362 347.600006103516 332.359985351562 357.720001220703 363.239990234375 370.519989013672 393.200012207031 396.799987792969 425.959991455078 433.600006103516 396.239990234375 348.559997558594 337.160003662109 336.079986572266 326.559997558594 309.359985351562 335.040008544922 352.239990234375 343.880004882812 314.160003662109 295.200012207031 299.399993896484 282.519989013672 307.799987792969 350.359985351562 342.160003662109 381.480010986328 341.839996337891 338.559997558594 287.440002441406 285.880004882812 253.360000610352 302.720001220703 308.799987792969 369.079986572266 333.200012207031 265.799987792969 246.360000610352 218.839996337891 175 215.240005493164 229.880004882812 215.199996948242 249.240005493164 284.920013427734 287.920013427734 245.839996337891 237.960006713867 231.720001220703 215.320007324219 203.960006713867 155.960006713867 149.440002441406 140.880004882812 132.160003662109 142.679992675781 141.960006713867 127.319999694824 111.559997558594 113.279998779297 97.4000015258789 97 102.480003356934 72.6800003051758 58 53.0400009155273 50.0800018310547 70.0800018310547 81.6399993896484 117.559997558594 131.080001831055 127.480003356934 160.320007324219 199.039993286133 180.919998168945 181 167.119995117188 93.2399978637695 142.639999389648 177.759994506836 245.960006713867 286.200012207031 279.959991455078 276.600006103516 302.519989013672 409.920013427734 410.720001220703 405.880004882812 399.920013427734 338.799987792969 244.080001831055 311.279998779297 332.359985351562 354.440002441406 308.119995117188 277.320007324219 219.600006103516 202.639999389648 205.960006713867 208.559997558594 225.039993286133 244.919998168945 265.359985351562 290.279998779297 287.519989013672 267.760009765625 231.880004882812 195.679992675781 193.279998779297 164.119995117188 118.839996337891 110.319999694824 104.319999694824 108.839996337891 121.559997558594 121.919998168945 130.639999389648 151.479995727539 175.039993286133 195.800003051758 242.279998779297 228.679992675781 193.360000610352 164.279998779297 152.039993286133 142.320007324219 135.520004272461 126.480003356934 119.919998168945 124.76000213623 134.039993286133 143.199996948242 128.240005493164 122.680000305176 134.679992675781 153.679992675781 151.199996948242 139.600006103516 136.119995117188 157.440002441406 178.160003662109 165.960006713867 152.679992675781 136.679992675781 130.399993896484 130.880004882812 143.759994506836 165.279998779297 146.160003662109 147.960006713867 135.960006713867 143.800003051758 134.479995727539 133.600006103516 131.679992675781 112.440002441406
184.600006103516 197.839996337891 210.360000610352 279.200012207031 464.119995117188 428.279998779297 439.640014648438 506.359985351562 475.320007324219 434.920013427734 392.519989013672 375.920013427734 388.440002441406 381.880004882812 363.079986572266 320.920013427734 291.040008544922 272.760009765625 248.399993896484 262.200012207031 279.959991455078 303.200012207031 323.359985351562 306.480010986328 301.040008544922 269.239990234375 279 295.079986572266 281.920013427734 276.600006103516 295.839996337891 284.440002441406 290.920013427734 289.720001220703 277.239990234375 263.600006103516 240.960006713867 239.399993896484 237.960006713867 224.520004272461 222.679992675781 215.839996337891 192.039993286133 198.960006713867 205.320007324219 177.600006103516 210 217.880004882812 227.800003051758 236 255.600006103516 283.359985351562 294.279998779297 297.959991455078 271.799987792969 250.399993896484 282.079986572266 312.200012207031 315.200012207031 287.679992675781 305.640014648438 351.720001220703 358.920013427734 321.920013427734 337.320007324219 371.480010986328 371.320007324219 345.559997558594 353.920013427734 322.679992675781 342.480010986328 352.839996337891 370.040008544922 395.320007324219 374.720001220703 401.679992675781 372.600006103516 348.200012207031 329.160003662109 342.040008544922 350.959991455078 367.519989013672 386.959991455078 373.880004882812 408.519989013672 423.959991455078 402.600006103516 362.880004882812 346.679992675781 342.119995117188 335.799987792969 325.200012207031 346.279998779297 367.880004882812 354.880004882812 314.160003662109 307.519989013672 309.600006103516 286.679992675781 298.799987792969 331.040008544922 369.839996337891 358.600006103516 349.839996337891 321.839996337891 329.160003662109 338 261.239990234375 299.359985351562 278.320007324219 295.600006103516 269.600006103516 244.639999389648 220.119995117188 196.759994506836 201.639999389648 238.880004882812 251.039993286133 238.800003051758 234.119995117188 263.959991455078 273.559997558594 239.639999389648 209.399993896484 195.279998779297 178.679992675781 178.800003051758 188.919998168945 189.919998168945 156.399993896484 183.679992675781 163.080001831055 164.320007324219 173.479995727539 141.320007324219 164.240005493164 146.080001831055 126 113.800003051758 110.480003356934 70.120002746582 54.1599998474121 51.3600006103516 48.9599990844727 52.3199996948242 84.1999969482422 108.160003662109 121.360000610352 135.080001831055 209.919998168945 192.759994506836 134.839996337891 113.76000213623 92.2399978637695 142.520004272461 180.880004882812 208.720001220703 256.760009765625 276.760009765625 252.080001831055 261.320007324219 323.399993896484 301.440002441406 308 313.239990234375 199.320007324219 209.639999389648 291.160003662109 249.639999389648 303.880004882812 255.880004882812 241.600006103516 194.440002441406 197.080001831055 203.639999389648 217.160003662109 275.839996337891 487.760009765625 511.519989013672 405.920013427734 358.920013427734 336.279998779297 221.679992675781 152.440002441406 151.440002441406 140.679992675781 99.7200012207031 95.7600021362305 123.360000610352 139.199996948242 158.279998779297 137.639999389648 162.639999389648 178.240005493164 208.440002441406 227.559997558594 215 189.039993286133 177.119995117188 163.679992675781 166.119995117188 153.520004272461 144.759994506836 132.720001220703 117.879997253418 115.879997253418 120.519996643066 133.759994506836 131.520004272461 115.639999389648 130.839996337891 137.800003051758 133.160003662109 124.720001220703 140.520004272461 163.759994506836 170.039993286133 178.399993896484 169.600006103516 151.880004882812 140.160003662109 123.480003356934 133.399993896484 151.639999389648 133.919998168945 148.039993286133 135.600006103516 117.959999084473 117 117.480003356934 112.599998474121 106.23999786377
178.160003662109 191.279998779297 251.440002441406 418.640014648438 429.519989013672 544.880004882812 499.200012207031 535.320007324219 498.480010986328 444.359985351562 385.839996337891 359.880004882812 357.320007324219 359.640014648438 342.279998779297 318.839996337891 294.959991455078 271.760009765625 248.520004272461 256.600006103516 293.600006103516 321.399993896484 311 298.440002441406 288.079986572266 276.200012207031 259.239990234375 259.799987792969 258.839996337891 282.600006103516 302.720001220703 282.799987792969 266.839996337891 277.040008544922 286.720001220703 268.559997558594 257.200012207031 257.119995117188 243.960006713867 231.479995727539 226.479995727539 221.679992675781 189.759994506836 171.080001831055 169.960006713867 173.720001220703 204.320007324219 225.960006713867 221.800003051758 234.039993286133 258.480010986328 297.760009765625 286.760009765625 263.760009765625 248.080001831055 253.759994506836 287.440002441406 288.320007324219 282.519989013672 299.160003662109 313.359985351562 345.880004882812 348.519989013672 310.839996337891 356.720001220703 375.160003662109 365.359985351562 353.279998779297 322.160003662109 323.480010986328 337.320007324219 336.559997558594 365.440002441406 395 366.959991455078 388.720001220703 377.880004882812 358.279998779297 347.359985351562 321.679992675781 335.040008544922 363.239990234375 359.399993896484 369.440002441406 398.359985351562 395.920013427734 395.119995117188 366.600006103516 354.519989013672 355.320007324219 337.480010986328 344.440002441406 362.440002441406 348.799987792969 343.559997558594 306.839996337891 324.799987792969 323.600006103516 296.119995117188 336.399993896484 318.559997558594 346.880004882812 376.920013427734 342.399993896484 350.279998779297 400.920013427734 327.480010986328 280.079986572266 310.239990234375 313.040008544922 269.839996337891 264.200012207031 353.359985351562 308.279998779297 195.759994506836 226.919998168945 265.399993896484 277 268.399993896484 268.320007324219 290.440002441406 253.080001831055 249.479995727539 219.520004272461 186.720001220703 184.320007324219 186.520004272461 220.600006103516 193.759994506836 170.399993896484 199.039993286133 193.600006103516 231.240005493164 179 162.600006103516 247.440002441406 205.919998168945 171.960006713867 135.839996337891 151.199996948242 106.080001831055 67.1600036621094 51.560001373291 48.1599998474121 51 52.2000007629395 61.5999984741211 100.080001831055 144.679992675781 166.520004272461 213.880004882812 147.360000610352 97.5199966430664 128.800003051758 171.080001831055 156.199996948242 191.160003662109 220.839996337891 230.320007324219 216.039993286133 209.520004272461 239.839996337891 212.679992675781 194.960006713867 233.720001220703 171.199996948242 199.960006713867 234.759994506836 188.960006713867 232.759994506836 190.720001220703 196.399993896484 212.039993286133 235.320007324219 220.479995727539 200.160003662109 393.920013427734 489.720001220703 442.119995117188 366.040008544922 315.959991455078 247.479995727539 210.559997558594 151.600006103516 117.919998168945 112.800003051758 89.1600036621094 96.5599975585938 121.76000213623 146.880004882812 171.360000610352 147.639999389648 166.520004272461 175.559997558594 181.559997558594 212.960006713867 225 212.960006713867 191.279998779297 185.759994506836 175.600006103516 168.479995727539 162 146.679992675781 134.639999389648 121.879997253418 113 116.800003051758 126.040000915527 114.23999786377 115.959999084473 122.879997253418 119.959999084473 123.080001831055 145.240005493164 147.880004882812 146.119995117188 161.240005493164 176.919998168945 162.240005493164 141.639999389648 120.559997558594 120.360000610352 143.199996948242 126 130.320007324219 144.880004882812 130.399993896484 109.279998779297 100.879997253418 100.160003662109 99.6399993896484
185.639999389648 200.800003051758 249 578.960021972656 516.880004882812 580.599975585938 560.880004882812 537.200012207031 467.279998779297 420.079986572266 376.480010986328 345.079986572266 334.920013427734 349.880004882812 318.119995117188 294.880004882812 275.040008544922 257.959991455078 240.360000610352 262.279998779297 286.600006103516 311.640014648438 297.559997558594 293.559997558594 278.079986572266 284.040008544922 280.760009765625 259.559997558594 250.919998168945 281.760009765625 282.119995117188 278.720001220703 257.119995117188 263.279998779297 272.640014648438 257.200012207031 250.479995727539 249.160003662109 224.520004272461 242.639999389648 251.559997558594 235.479995727539 200.240005493164 188.880004882812 161.679992675781 156.880004882812 200.199996948242 197.039993286133 209.759994506836 220.639999389648 244.039993286133 285.880004882812 259.559997558594 242.600006103516 224.600006103516 263.320007324219 278 262.679992675781 287.839996337891 332.320007324219 339.440002441406 332.600006103516 307.320007324219 302.200012207031 337.279998779297 369.320007324219 364.160003662109 348.839996337891 313.399993896484 327.760009765625 315.320007324219 346.959991455078 363.799987792969 375.600006103516 357 369.559997558594 392.920013427734 377.920013427734 355.399993896484 318.320007324219 332.239990234375 351.640014648438 337.799987792969 350.399993896484 371.079986572266 385.959991455078 399.880004882812 388.480010986328 372.399993896484 354 353.399993896484 368.279998779297 346.399993896484 331.679992675781 323.600006103516 322.880004882812 330.359985351562 321.920013427734 313.839996337891 358.279998779297 350.359985351562 353.480010986328 392.040008544922 351.720001220703 387.160003662109 431.839996337891 347.440002441406 309.440002441406 341.399993896484 342.040008544922 313.679992675781 305.200012207031 390.160003662109 381.399993896484 224.839996337891 216.039993286133 245.559997558594 266.600006103516 292.880004882812 312.559997558594 281.079986572266 245.399993896484 217.279998779297 199.119995117188 191.199996948242 233.520004272461 206.919998168945 225.440002441406 206.880004882812 180.880004882812 212.080001831055 217.559997558594 195.559997558594 196 184.320007324219 240.080001831055 267.079986572266 204.399993896484 155.160003662109 173.639999389648 142.119995117188 113 71.2399978637695 48.7200012207031 49.0400009155273 50.3600006103516 51.9599990844727 66.9599990844727 121.040000915527 176.759994506836 209.360000610352 152.800003051758 95.9599990844727 121.199996948242 130.919998168945 168.320007324219 180.160003662109 191.639999389648 196.119995117188 177.320007324219 204.479995727539 222.320007324219 193.960006713867 163.479995727539 175.440002441406 154.440002441406 206.759994506836 192.679992675781 166.080001831055 193.839996337891 163.440002441406 184.919998168945 223.119995117188 237.759994506836 188.800003051758 228.160003662109 376.399993896484 368.519989013672 332.920013427734 286.200012207031 224.039993286133 162.440002441406 133.399993896484 119.319999694824 101.680000305176 85.6800003051758 87.5599975585938 121.480003356934 142.520004272461 163.720001220703 190.600006103516 172.399993896484 172 183.080001831055 197.600006103516 213.880004882812 220.880004882812 217.520004272461 217.759994506836 205.399993896484 198.679992675781 181 157.960006713867 146.559997558594 140.880004882812 130.160003662109 121.279998779297 110 109.440002441406 114.440002441406 118.120002746582 111.23999786377 117.76000213623 128.639999389648 144.240005493164 137.199996948242 136.399993896484 160.839996337891 155.199996948242 162.399993896484 151 126.080001831055 113.040000915527 136.039993286133 129.199996948242 113.160003662109 121.160003662109 114.839996337891 101 98.120002746582 100.720001220703 98.3199996948242
178.720001220703 199.080001831055 270.160003662109 525 580.640014648438 514.039978027344 510.640014648438 559.47998046875 497.720001220703 417.239990234375 372.359985351562 343 321.399993896484 349.239990234375 336.399993896484 313.720001220703 292.559997558594 256.760009765625 238.960006713867 248.479995727539 275.079986572266 298.119995117188 282.839996337891 274.239990234375 264.640014648438 279.519989013672 290.320007324219 254.399993896484 253.479995727539 280.480010986328 271.079986572266 259.959991455078 243.919998168945 259.720001220703 258.480010986328 240.240005493164 229.199996948242 233.479995727539 214.160003662109 241.199996948242 250.839996337891 230.679992675781 210.639999389648 196.360000610352 163.399993896484 159.440002441406 186.080001831055 192.600006103516 208.039993286133 221.720001220703 240.880004882812 249.160003662109 238.600006103516 226.559997558594 219.399993896484 267.720001220703 260.040008544922 244.199996948242 300.760009765625 336.679992675781 310.880004882812 295.359985351562 280.239990234375 315 343.119995117188 368.720001220703 345.959991455078 341.200012207031 301.799987792969 301.760009765625 327.880004882812 353.160003662109 372 364.040008544922 343.160003662109 345.079986572266 374.160003662109 371.720001220703 366.880004882812 322.079986572266 314.040008544922 317.880004882812 325.160003662109 346.640014648438 382.200012207031 407.799987792969 390.959991455078 401.559997558594 393.079986572266 377.119995117188 374.239990234375 354.839996337891 344.079986572266 348.040008544922 346.640014648438 355.920013427734 340.119995117188 317.959991455078 316.079986572266 351.760009765625 337.799987792969 358.519989013672 396.040008544922 364.160003662109 364.040008544922 397.640014648438 369 347.720001220703 363.959991455078 379.200012207031 386.559997558594 405.679992675781 474.279998779297 359.600006103516 252.919998168945 242.720001220703 223.520004272461 249.080001831055 287.320007324219 298.519989013672 269.119995117188 237.679992675781 213.399993896484 220.679992675781 195.919998168945 223.279998779297 249.440002441406 235.279998779297 226.360000610352 206.479995727539 202.440002441406 220.679992675781 222.360000610352 238.720001220703 213.039993286133 210.720001220703 256.480010986328 234.720001220703 184.720001220703 184.520004272461 168.320007324219 132.639999389648 103.160003662109 64 49.8800010681152 48.3600006103516 50.9199981689453 52.2799987792969 97.8000030517578 165.240005493164 190.199996948242 130.080001831055 101.080001831055 122.879997253418 149.199996948242 186.600006103516 189.399993896484 143.520004272461 142.839996337891 204.440002441406 252.440002441406 223.639999389648 182.080001831055 173.520004272461 157 143.479995727539 175.759994506836 161.240005493164 139.360000610352 153.440002441406 159.839996337891 192.479995727539 233.080001831055 197.759994506836 174.080001831055 267.720001220703 320.920013427734 290.200012207031 234.759994506836 175.360000610352 137.839996337891 128.279998779297 98.4000015258789 81.5199966430664 80.4000015258789 109.199996948242 118.400001525879 110.400001525879 126.800003051758 157.279998779297 197.479995727539 162.800003051758 178.800003051758 201.600006103516 216.160003662109 199.520004272461 196.960006713867 199.919998168945 209.679992675781 189.960006713867 195 169.600006103516 156.320007324219 147.160003662109 138.559997558594 138.800003051758 140.199996948242 156.839996337891 138.199996948242 132.839996337891 124.440002441406 104.76000213623 107.519996643066 121.839996337891 134.240005493164 131.080001831055 128.600006103516 156.440002441406 159.800003051758 139.440002441406 149.880004882812 132.479995727539 106.639999389648 121.480003356934 128.199996948242 106.199996948242 101.040000915527 96.3199996948242 96.1600036621094 99.1999969482422 97.5199966430664 100.519996643066
198.520004272461 239.520004272461 372.040008544922 656.119995117188 653.080017089844 604.359985351562 524.440002441406 582.679992675781 560.719970703125 433.920013427734 410.079986572266 339.119995117188 323.200012207031 350.279998779297 351.880004882812 317.839996337891 290.760009765625 274.839996337891 237.360000610352 253.600006103516 278.160003662109 303.279998779297 277.119995117188 257.959991455078 251.919998168945 264.600006103516 281.600006103516 248.520004272461 254.240005493164 280.959991455078 266.920013427734 250.520004272461 231.240005493164 244.360000610352 238.839996337891 232.039993286133 222.199996948242 213.479995727539 208.279998779297 227.880004882812 236.800003051758 212.759994506836 196.839996337891 187.160003662109 152.800003051758 159.679992675781 196.559997558594 216.360000610352 222.039993286133 220.839996337891 219.399993896484 224.199996948242 234.919998168945 196.559997558594 226.160003662109 250.240005493164 233.119995117188 244.160003662109 321.720001220703 338.799987792969 302.359985351562 276.839996337891 297.920013427734 325 335.040008544922 365.839996337891 340.079986572266 325.279998779297 304.720001220703 306.920013427734 307.519989013672 319.399993896484 363.720001220703 383.519989013672 362.600006103516 331.160003662109 341.920013427734 342.920013427734 349.519989013672 317.959991455078 299.679992675781 324.760009765625 333.079986572266 337.200012207031 377.600006103516 391.720001220703 381.239990234375 403.119995117188 415.600006103516 393.320007324219 376.799987792969 364.359985351562 360.160003662109 362.079986572266 363.279998779297 370.760009765625 352.239990234375 317.559997558594 332.079986572266 352.959991455078 332.119995117188 354.239990234375 394.440002441406 386.760009765625 369.440002441406 377.239990234375 377.640014648438 370.640014648438 392.160003662109 399.720001220703 434.519989013672 520.400024414062 452.679992675781 295.160003662109 272.200012207031 282.799987792969 241.559997558594 253.720001220703 311.040008544922 312.119995117188 294.920013427734 258.600006103516 237.960006713867 247.600006103516 207.080001831055 218.720001220703 252.679992675781 264.359985351562 270.239990234375 233.759994506836 213.759994506836 217.399993896484 233.279998779297 257.600006103516 256.279998779297 211.960006713867 246.039993286133 282.279998779297 205.639999389648 216.880004882812 197.559997558594 182.639999389648 129.960006713867 108.76000213623 76.0400009155273 50.9599990844727 48.1199989318848 48.8400001525879 56.560001373291 139.240005493164 173.880004882812 127.800003051758 93.9199981689453 135.080001831055 144.839996337891 164.839996337891 136.600006103516 153.559997558594 181.559997558594 179.639999389648 255.880004882812 246.639999389648 215.919998168945 175.880004882812 130.240005493164 147.039993286133 148.160003662109 115.559997558594 119.76000213623 142.479995727539 186.639999389648 219.800003051758 254.320007324219 184.880004882812 149.399993896484 211.639999389648 221 181.919998168945 137.960006713867 136.160003662109 111.040000915527 113.919998168945 90.5999984741211 85.0400009155273 111.480003356934 133.119995117188 148.080001831055 133.839996337891 146.839996337891 163.360000610352 176.600006103516 187.880004882812 188.759994506836 203.559997558594 215 195.800003051758 180.080001831055 167.919998168945 170.399993896484 166.320007324219 178.080001831055 178.559997558594 175.080001831055 182.600006103516 186.919998168945 182.080001831055 159.960006713867 179.440002441406 166.759994506836 156.479995727539 128.080001831055 132.360000610352 118.199996948242 149.360000610352 133.880004882812 121 127.800003051758 151.960006713867 157.399993896484 136.240005493164 135.720001220703 128.880004882812 102.519996643066 116.440002441406 108.76000213623 95.9599990844727 93.0400009155273 95.0800018310547 97.3199996948242 97.4400024414062 100.360000610352 111.040000915527
198.240005493164 219.960006713867 325.480010986328 581.799987792969 667.840026855469 639.679992675781 578.440002441406 618.599975585938 618.840026855469 481.640014648438 446 344.040008544922 307.239990234375 326.480010986328 345.760009765625 310.880004882812 267.640014648438 255.080001831055 232.679992675781 250.919998168945 294.200012207031 292.200012207031 284.920013427734 269.359985351562 246.119995117188 250.800003051758 260.519989013672 233.520004272461 261.959991455078 279.959991455078 263.640014648438 243.759994506836 237.759994506836 220.479995727539 227 241.839996337891 230.119995117188 203.399993896484 200.320007324219 217.919998168945 235.600006103516 209.039993286133 185.160003662109 179.199996948242 150.039993286133 162 204.080001831055 210 222.199996948242 200.720001220703 210.919998168945 222.720001220703 235.679992675781 209.080001831055 219.880004882812 221.199996948242 216.440002441406 270.839996337891 322.040008544922 324.480010986328 282.799987792969 261.239990234375 304.160003662109 347.239990234375 373.480010986328 399.320007324219 342.959991455078 296.959991455078 279.279998779297 293.119995117188 295.600006103516 314.720001220703 338.440002441406 343.839996337891 364.600006103516 352.679992675781 331.040008544922 313.440002441406 310.279998779297 313.799987792969 304.079986572266 320.519989013672 332.679992675781 344.480010986328 378.320007324219 370 389.880004882812 413.239990234375 403.600006103516 395.559997558594 369.519989013672 381.399993896484 384.600006103516 378.399993896484 371.839996337891 353.160003662109 330.720001220703 327.320007324219 371.040008544922 370.359985351562 343.440002441406 372.040008544922 385.320007324219 399.200012207031 376.160003662109 393.559997558594 416.600006103516 415.160003662109 419.679992675781 445.679992675781 474.920013427734 533.200012207031 416.359985351562 293.200012207031 346.040008544922 320.200012207031 262.519989013672 274 268.480010986328 312.359985351562 277.559997558594 262.839996337891 263.640014648438 273.040008544922 224.199996948242 216.360000610352 257.119995117188 289.559997558594 297.040008544922 257.119995117188 228.960006713867 226.080001831055 255.479995727539 263.359985351562 263.119995117188 247.839996337891 280.079986572266 315.799987792969 216.080001831055 239.320007324219 235.399993896484 208.160003662109 167.639999389648 139.160003662109 112.319999694824 84.4800033569336 52.6800003051758 45.9599990844727 47.8400001525879 100 141.039993286133 105.319999694824 100.879997253418 100.120002746582 122.080001831055 137.800003051758 171.080001831055 213.800003051758 202.039993286133 195.119995117188 259.079986572266 224.039993286133 188.039993286133 160.199996948242 118 113.839996337891 97.6399993896484 124.919998168945 150.720001220703 165.320007324219 188.360000610352 189.559997558594 200.839996337891 162.800003051758 143.440002441406 135.919998168945 157.919998168945 143 118.480003356934 159.800003051758 134.479995727539 102.680000305176 81.8399963378906 97.9599990844727 134.759994506836 145.639999389648 167.279998779297 177.399993896484 144.759994506836 141.320007324219 174.639999389648 207.600006103516 220.360000610352 220.360000610352 234.679992675781 217.520004272461 195.199996948242 166.399993896484 145.720001220703 152.639999389648 167.759994506836 194.080001831055 223.199996948242 217.119995117188 204.600006103516 194.240005493164 204.240005493164 209.919998168945 191.360000610352 164.240005493164 158.479995727539 140.919998168945 102.839996337891 109.319999694824 124.559997558594 113.599998474121 117.360000610352 148.199996948242 147.279998779297 141.679992675781 123.279998779297 134.119995117188 105.279998779297 101.040000915527 91.1600036621094 92.3199996948242 94.4400024414062 95.879997253418 97.2399978637695 97.6399993896484 105.559997558594 123.360000610352
188.520004272461 208.880004882812 324 613.640014648438 688.239990234375 694.52001953125 627.719970703125 653.119995117188 626.159973144531 498.079986572266 414.279998779297 331.160003662109 298.119995117188 318.600006103516 358.440002441406 311.200012207031 275.359985351562 245.240005493164 232.960006713867 237 282.559997558594 271.200012207031 269.799987792969 262.119995117188 238.639999389648 237.320007324219 244.440002441406 236 264.480010986328 273.359985351562 248.279998779297 242.320007324219 221.479995727539 211.759994506836 225.240005493164 243.399993896484 226.160003662109 196.080001831055 193.720001220703 214.399993896484 223.080001831055 212.919998168945 195.039993286133 163.960006713867 142.279998779297 154.320007324219 175.960006713867 201.279998779297 188.479995727539 188.360000610352 207.160003662109 211.919998168945 235.360000610352 214.320007324219 196.320007324219 191.559997558594 219.279998779297 271.399993896484 288.880004882812 297 257.920013427734 268.320007324219 305.760009765625 345.119995117188 365.279998779297 390.040008544922 353.600006103516 287.079986572266 264.239990234375 277.679992675781 304.600006103516 318.760009765625 301.839996337891 323.519989013672 360.239990234375 356.440002441406 346.079986572266 331.359985351562 294.040008544922 291.959991455078 308.480010986328 329.399993896484 354.079986572266 361.519989013672 358.040008544922 362.799987792969 389.399993896484 403.720001220703 387.760009765625 361.399993896484 352.959991455078 366.399993896484 396.679992675781 383.880004882812 359.079986572266 335.320007324219 328.320007324219 374.880004882812 421.959991455078 426.760009765625 363.359985351562 376.679992675781 389.359985351562 400.760009765625 383.519989013672 414.440002441406 436.799987792969 451.160003662109 444.040008544922 456.200012207031 491.600006103516 554.440002441406 377.920013427734 369.399993896484 361.160003662109 314.600006103516 280.200012207031 312.040008544922 277.600006103516 308.760009765625 287.760009765625 278.640014648438 301.559997558594 287.640014648438 236.639999389648 219.160003662109 251.639999389648 271.359985351562 360.880004882812 290.040008544922 262.600006103516 238.960006713867 265.200012207031 284.640014648438 351.160003662109 283.399993896484 274.079986572266 323.519989013672 290.040008544922 318.239990234375 274.160003662109 222.800003051758 201.119995117188 185.960006713867 165.080001831055 123.680000305176 85.4800033569336 86.7600021362305 46.560001373291 54.7200012207031 82.4000015258789 97.4400024414062 118.319999694824 139.080001831055 146.160003662109 187.520004272461 230.199996948242 239.479995727539 234.759994506836 268.160003662109 267.239990234375 220.880004882812 184.479995727539 142 107.599998474121 78.7600021362305 122.279998779297 178.279998779297 207.360000610352 194.080001831055 140.039993286133 138.279998779297 161.720001220703 143.559997558594 131 123.319999694824 176.399993896484 146.399993896484 123.279998779297 150.919998168945 121.919998168945 106.160003662109 80.4000015258789 108.839996337891 124.23999786377 128.960006713867 147.119995117188 157.479995727539 158.479995727539 179.119995117188 196.279998779297 205.839996337891 216.160003662109 214.839996337891 211.360000610352 202.080001831055 176.759994506836 149.839996337891 137.960006713867 148.039993286133 183.360000610352 195.080001831055 195.440002441406 210.320007324219 200.960006713867 184.240005493164 194.360000610352 191.800003051758 192.520004272461 180.679992675781 141.720001220703 119.080001831055 101.76000213623 98.1999969482422 108.199996948242 104.440002441406 125.839996337891 146.919998168945 129.639999389648 134.160003662109 117.800003051758 118.519996643066 104.800003051758 92.4400024414062 92.9599990844727 93.6399993896484 94.7600021362305 98.7600021362305 118.160003662109 109.319999694824 99.0800018310547 113.080001831055
317.079986572266 253.520004272461 338.559997558594 611.640014648438 656.200012207031 660.320007324219 634.080017089844 653.840026855469 606.799987792969 457.959991455078 370.519989013672 355.519989013672 290.040008544922 328.359985351562 363.640014648438 332.679992675781 292.880004882812 267.600006103516 241.360000610352 232.119995117188 268.399993896484 261.959991455078 261.559997558594 249.559997558594 238.759994506836 230.600006103516 230.919998168945 240.080001831055 263.239990234375 257.920013427734 240.639999389648 226.600006103516 207.479995727539 226.759994506836 217.679992675781 236.720001220703 213.720001220703 182.880004882812 196.119995117188 199.759994506836 208.279998779297 209.600006103516 193.160003662109 176.199996948242 154.759994506836 137.240005493164 165.960006713867 166.600006103516 173.199996948242 196.839996337891 217.360000610352 228.240005493164 240.800003051758 233.320007324219 175.639999389648 173.559997558594 214.320007324219 264.920013427734 283.519989013672 274.200012207031 237.080001831055 271.160003662109 285.040008544922 334.799987792969 353.760009765625 389.519989013672 329.760009765625 278.720001220703 250.720001220703 287.600006103516 297.320007324219 293 300.359985351562 326.119995117188 357.480010986328 344.760009765625 321.720001220703 310.799987792969 282.079986572266 275.279998779297 301 313.279998779297 334.040008544922 344.519989013672 347.880004882812 356.239990234375 368.959991455078 386.519989013672 383.480010986328 342.839996337891 330.799987792969 352.640014648438 376.600006103516 389.359985351562 356.040008544922 334.480010986328 355.079986572266 388.559997558594 441.480010986328 436.160003662109 388.880004882812 392.480010986328 384.519989013672 405.640014648438 398.559997558594 410.679992675781 422.959991455078 441.880004882812 463.359985351562 467.559997558594 537.960021972656 551.47998046875 419.480010986328 423.959991455078 378.200012207031 348.959991455078 320 326.839996337891 306.920013427734 301.720001220703 312.640014648438 344.559997558594 351.880004882812 307.959991455078 230.679992675781 226.919998168945 233.800003051758 243 307.839996337891 315.359985351562 294.760009765625 258.760009765625 286.480010986328 304.519989013672 352.119995117188 305.040008544922 312.640014648438 335.359985351562 350.119995117188 335.760009765625 289.920013427734 286.040008544922 163.720001220703 169.800003051758 137.160003662109 120.720001220703 160.160003662109 157.679992675781 55.7599983215332 45.2799987792969 61.8400001525879 112.76000213623 147.240005493164 169.520004272461 183.199996948242 233.479995727539 228.679992675781 230.240005493164 264.679992675781 254.479995727539 265.519989013672 193.559997558594 145.479995727539 115.400001525879 74.9599990844727 82.4400024414062 164.039993286133 191.839996337891 200.119995117188 187.160003662109 118.480003356934 136.800003051758 183.600006103516 180.600006103516 106.839996337891 153.880004882812 170.559997558594 123.319999694824 124.76000213623 146.520004272461 120.680000305176 93.4000015258789 87.0400009155273 114.279998779297 118.599998474121 135.679992675781 134.839996337891 162.839996337891 204.119995117188 242.800003051758 241.759994506836 218.240005493164 204.960006713867 195.559997558594 192.399993896484 178 161.880004882812 154.960006713867 135.679992675781 150.639999389648 175.360000610352 156.880004882812 181.360000610352 211.679992675781 206.080001831055 182.119995117188 202.960006713867 173.080001831055 162.839996337891 164.479995727539 155.679992675781 140.360000610352 119.599998474121 97.0400009155273 94.4800033569336 100.199996948242 134.759994506836 136.279998779297 119.480003356934 113.360000610352 108.160003662109 101.519996643066 95.3199996948242 92.5999984741211 90.9199981689453 96 109.800003051758 118.319999694824 118.800003051758 110.599998474121 103.480003356934 125.160003662109
413.239990234375 290.679992675781 421.119995117188 648.239990234375 604.640014648438 634.799987792969 599.640014648438 617.599975585938 608.320007324219 497.399993896484 354.399993896484 317.040008544922 295.200012207031 315 340.200012207031 322.279998779297 281.279998779297 260 236.039993286133 223.039993286133 261.040008544922 248.279998779297 251.080001831055 237.919998168945 226.679992675781 231.039993286133 226.279998779297 251 274.359985351562 268.559997558594 244.559997558594 217.520004272461 200.320007324219 221.119995117188 209.160003662109 231.600006103516 223.360000610352 178.320007324219 187.960006713867 183.320007324219 208.720001220703 189.520004272461 188.360000610352 167.839996337891 156.600006103516 130.199996948242 147.839996337891 179.399993896484 192.080001831055 197.880004882812 208 232.520004272461 234.880004882812 201.800003051758 172.080001831055 178.399993896484 231.639999389648 284.040008544922 291.839996337891 242.759994506836 239.399993896484 257.600006103516 291.239990234375 315.920013427734 349.519989013672 374.279998779297 334.839996337891 252.880004882812 255.039993286133 271.679992675781 292.119995117188 297.679992675781 312.200012207031 339.279998779297 356.559997558594 339.040008544922 323.119995117188 310.160003662109 278.200012207031 268.760009765625 296.119995117188 330.399993896484 348.040008544922 351.640014648438 366.079986572266 367.399993896484 387 392.519989013672 360.600006103516 322.079986572266 336.760009765625 354.959991455078 370.480010986328 379.519989013672 351.640014648438 350.600006103516 369.600006103516 394.320007324219 433.720001220703 431.880004882812 414.440002441406 416.320007324219 392.640014648438 402.119995117188 422 437.440002441406 436.519989013672 437.880004882812 474.200012207031 497.359985351562 529.559997558594 526.52001953125 484.079986572266 490 463.760009765625 456.640014648438 348.600006103516 326.519989013672 301.959991455078 327.079986572266 366.040008544922 370.839996337891 338.959991455078 248.399993896484 257.880004882812 280.519989013672 268.519989013672 290.600006103516 262.920013427734 271.880004882812 309.320007324219 270.760009765625 292.239990234375 315.079986572266 344.559997558594 331.880004882812 341.480010986328 323.959991455078 267.040008544922 237.639999389648 247.520004272461 212.320007324219 174.960006713867 140.839996337891 175.679992675781 134.039993286133 106.599998474121 100.360000610352 75.9599990844727 46.2000007629395 52.8400001525879 110.680000305176 132.839996337891 199.160003662109 210.240005493164 226.520004272461 196.839996337891 193.039993286133 232.360000610352 251.279998779297 255.759994506836 183.199996948242 160.199996948242 121.23999786377 62.7599983215332 106.639999389648 167 148.039993286133 139.320007324219 127.080001831055 102.360000610352 137 142.279998779297 146.720001220703 98.7600021362305 136.639999389648 139.479995727539 106.120002746582 159.240005493164 183.360000610352 136.720001220703 79.1600036621094 94.8000030517578 109.720001220703 107.120002746582 121.879997253418 159.839996337891 186.399993896484 259.079986572266 370.040008544922 292.239990234375 210.160003662109 190.399993896484 184 178.199996948242 161.399993896484 143.960006713867 139.080001831055 139.960006713867 138.759994506836 139.600006103516 164.479995727539 188.600006103516 195.360000610352 189.679992675781 165 161.600006103516 146.119995117188 137.720001220703 147.960006713867 163.600006103516 144.919998168945 115.440002441406 108.040000915527 90.879997253418 100.919998168945 123.160003662109 116.400001525879 104.800003051758 99.9599990844727 93.8000030517578 91.6399993896484 92 98.2399978637695 99.5599975585938 111.76000213623 132 131.360000610352 125.160003662109 104.040000915527 118.839996337891 142.800003051758
401.519989013672 332.679992675781 442.119995117188 681.080017089844 557.47998046875 630.840026855469 569.440002441406 600.760009765625 602.599975585938 481.040008544922 334.160003662109 334.480010986328 282.600006103516 290.200012207031 322.239990234375 301.600006103516 263 254.440002441406 232 218.800003051758 245.039993286133 254.199996948242 227.279998779297 226.520004272461 217.399993896484 221 233.600006103516 256.320007324219 267.799987792969 261.679992675781 231.600006103516 205.960006713867 198.080001831055 208.479995727539 202.919998168945 221.360000610352 223.240005493164 169.039993286133 170.639999389648 181.240005493164 193.399993896484 178.520004272461 168.039993286133 153.919998168945 140.839996337891 120.919998168945 138.839996337891 175.720001220703 184.279998779297 209.800003051758 223.240005493164 217.759994506836 212.839996337891 186.119995117188 154.759994506836 185.479995727539 219.520004272461 274.640014648438 268.359985351562 224.360000610352 254.759994506836 243.199996948242 280.480010986328 324.399993896484 329.839996337891 313.399993896484 293.399993896484 247.559997558594 249.360000610352 287.239990234375 297.079986572266 316.200012207031 330.480010986328 353 355.720001220703 337.359985351562 308.320007324219 279.480010986328 282.839996337891 290.720001220703 301.320007324219 306.720001220703 321.440002441406 334.079986572266 352.679992675781 349.799987792969 367.119995117188 357.559997558594 333.959991455078 306.079986572266 333.119995117188 337.720001220703 363.720001220703 384.519989013672 355.559997558594 365.640014648438 380.920013427734 404.760009765625 415.079986572266 404.480010986328 417.600006103516 428.200012207031 418.440002441406 425.480010986328 441.359985351562 454.040008544922 463.079986572266 449.399993896484 473.320007324219 533.960021972656 550.760009765625 528.719970703125 532.799987792969 509.399993896484 480.320007324219 483.239990234375 410.760009765625 327.279998779297 353.640014648438 349.920013427734 350.799987792969 367.679992675781 283.359985351562 254.839996337891 270 309.760009765625 298.760009765625 358.959991455078 285.640014648438 280.760009765625 287.119995117188 349.480010986328 451.799987792969 411.040008544922 365 435.079986572266 349.359985351562 287.920013427734 255.279998779297 268.839996337891 262.839996337891 236.919998168945 207.119995117188 208.399993896484 206.119995117188 147.520004272461 111.800003051758 109.879997253418 91 52 45.0800018310547 69.3199996948242 196.080001831055 202.240005493164 205.520004272461 295.399993896484 190.080001831055 205.720001220703 243.720001220703 248.639999389648 191.720001220703 182.279998779297 150.839996337891 107.519996643066 59.7200012207031 92.1999969482422 100.120002746582 73.7200012207031 62.439998626709 61.9599990844727 65.9599990844727 66.4800033569336 82.879997253418 108.639999389648 90.0800018310547 147.880004882812 120.639999389648 127.040000915527 183.960006713867 153.800003051758 121.440002441406 91.2799987792969 77.3600006103516 98.4000015258789 121.160003662109 149.199996948242 174.440002441406 226.039993286133 336.959991455078 324.880004882812 235.399993896484 183.279998779297 177.160003662109 169.679992675781 168.039993286133 152.360000610352 137.479995727539 123.040000915527 145.839996337891 125.080001831055 133.880004882812 175.399993896484 158.800003051758 169.559997558594 183.039993286133 155.479995727539 128.320007324219 128.559997558594 125.23999786377 150 167.240005493164 136.080001831055 136.759994506836 111.319999694824 94.1600036621094 106.160003662109 107.919998168945 99.8000030517578 89.3600006103516 89.5599975585938 90.4800033569336 93.9199981689453 105.279998779297 112.919998168945 119.76000213623 113.080001831055 131.279998779297 141.880004882812 131.039993286133 111.639999389648 113.639999389648 125.639999389648
387.640014648438 373.480010986328 383.359985351562 692.47998046875 533.320007324219 579.880004882812 546.239990234375 569.960021972656 600.960021972656 443.279998779297 345.079986572266 289.839996337891 262.399993896484 289.839996337891 309.040008544922 313.160003662109 263.200012207031 238.360000610352 231.520004272461 212.240005493164 243.320007324219 252.559997558594 215.639999389648 208.080001831055 216.440002441406 216.800003051758 236.960006713867 260.119995117188 264.079986572266 245.279998779297 225.839996337891 201.240005493164 187.160003662109 195.639999389648 199.039993286133 222.800003051758 221.320007324219 160.080001831055 165.199996948242 188.279998779297 193.479995727539 175.759994506836 152.960006713867 141.639999389648 131.639999389648 123.680000305176 139.039993286133 175.080001831055 196.759994506836 211.279998779297 198.199996948242 192.960006713867 192.440002441406 174.839996337891 151.320007324219 194.559997558594 239.880004882812 275.160003662109 259 214.399993896484 228.520004272461 222.399993896484 253.440002441406 279.559997558594 303.040008544922 267.880004882812 247.199996948242 230.639999389648 260.519989013672 286.440002441406 302.799987792969 324.079986572266 355.399993896484 337.799987792969 323.519989013672 316.320007324219 313.200012207031 270.119995117188 260.320007324219 265.040008544922 276.200012207031 287.200012207031 309.440002441406 329.160003662109 319.040008544922 332.519989013672 342.279998779297 332.720001220703 309.440002441406 310.200012207031 324.119995117188 338.079986572266 364.200012207031 387 366.959991455078 370.640014648438 393.480010986328 383.679992675781 388.119995117188 405.559997558594 400.559997558594 413.279998779297 412.720001220703 430.519989013672 460.480010986328 466.079986572266 482 459.799987792969 496.359985351562 581.880004882812 569.640014648438 557.200012207031 550.719970703125 499.920013427734 503.519989013672 478.799987792969 393.320007324219 339.760009765625 372.559997558594 383.880004882812 380.880004882812 363.760009765625 316.239990234375 318.239990234375 305.079986572266 328.799987792969 334.320007324219 378.679992675781 314.640014648438 307.119995117188 367.200012207031 440.679992675781 448.040008544922 473.440002441406 415.519989013672 492.359985351562 441.440002441406 367.399993896484 342.160003662109 390.359985351562 425.679992675781 383.440002441406 304.839996337891 265.160003662109 195.199996948242 154.360000610352 125.599998474121 154.080001831055 124.800003051758 76.4400024414062 44.1199989318848 55.1199989318848 161.880004882812 164.839996337891 253.279998779297 345.399993896484 226.559997558594 164 203.479995727539 197.240005493164 152.240005493164 140.720001220703 116.199996948242 74.5599975585938 53.1199989318848 50.560001373291 49.1599998474121 49.8800010681152 48.8400001525879 50.0800018310547 53.4799995422363 51.560001373291 55.2000007629395 66.8399963378906 87.4000015258789 130.919998168945 103.440002441406 146.199996948242 153.039993286133 123.519996643066 88.5599975585938 72.2799987792969 73.0400009155273 93.6800003051758 126.23999786377 160.320007324219 160.080001831055 215.919998168945 314.320007324219 247.399993896484 171.039993286133 151 149.960006713867 153.919998168945 150.520004272461 141.199996948242 134.119995117188 134.759994506836 125 120.639999389648 151.399993896484 157.080001831055 142.759994506836 165.080001831055 202.839996337891 175.600006103516 172.720001220703 131.520004272461 117.440002441406 152.080001831055 155.839996337891 131.800003051758 121.160003662109 118.040000915527 94.4800033569336 103.199996948242 94.5199966430664 90 87.879997253418 93.0400009155273 97.4400024414062 108.76000213623 130.720001220703 134.199996948242 125.199996948242 129.600006103516 137.639999389648 151.360000610352 136.520004272461 125.519996643066 109.720001220703 107.519996643066
376.320007324219 289.480010986328 363.559997558594 631.359985351562 507.399993896484 524.599975585938 552.559997558594 585.080017089844 565.679992675781 373.519989013672 316.119995117188 286.519989013672 262.600006103516 256.239990234375 294.160003662109 295.679992675781 253.199996948242 226.919998168945 216.600006103516 211.039993286133 239.720001220703 242.559997558594 215.279998779297 206.960006713867 209.360000610352 229.119995117188 253.360000610352 257.559997558594 248.880004882812 234.160003662109 221.880004882812 206.639999389648 182.960006713867 189.839996337891 208.559997558594 211.919998168945 224.759994506836 150.639999389648 158.679992675781 179.360000610352 197.440002441406 188.039993286133 165.279998779297 150.720001220703 151.080001831055 123.800003051758 129.160003662109 150.279998779297 196.720001220703 215.839996337891 185.119995117188 182.960006713867 185.240005493164 174 146.399993896484 191.839996337891 241.119995117188 263.119995117188 244.759994506836 201.160003662109 204.720001220703 219.320007324219 258.279998779297 243.479995727539 276.279998779297 272 233.199996948242 230.360000610352 266.040008544922 348.519989013672 333.640014648438 334.320007324219 335.519989013672 340.440002441406 329.399993896484 308.519989013672 290.640014648438 271.160003662109 241.559997558594 270.320007324219 284.880004882812 283.679992675781 295.440002441406 305.399993896484 305.920013427734 335.760009765625 337.480010986328 317.640014648438 289.079986572266 302.399993896484 318.600006103516 330.559997558594 356.119995117188 387.239990234375 380.880004882812 388.559997558594 390.880004882812 371.079986572266 385.519989013672 392.440002441406 382.359985351562 395.160003662109 406.959991455078 423.559997558594 455.519989013672 461.559997558594 490.880004882812 473.640014648438 540.320007324219 593.52001953125 582.320007324219 565.919982910156 528.640014648438 505.720001220703 522.039978027344 470.519989013672 399 354.239990234375 373.480010986328 416.119995117188 394.079986572266 352.959991455078 329.279998779297 354.880004882812 327.760009765625 357.920013427734 392.959991455078 468.440002441406 417.279998779297 332.760009765625 312.279998779297 409.559997558594 521.320007324219 501.239990234375 489.839996337891 497.839996337891 489.480010986328 443.239990234375 419.799987792969 429.600006103516 433.760009765625 390.320007324219 356.119995117188 292.239990234375 193.600006103516 168.279998779297 143.600006103516 181.080001831055 143.119995117188 167.440002441406 185.440002441406 74.7200012207031 53.4799995422363 151.720001220703 237 287.119995117188 138.919998168945 177.479995727539 208.039993286133 176.720001220703 129.639999389648 100.440002441406 69.1999969482422 48.8400001525879 49.6800003051758 49.5999984741211 49.4799995422363 48.439998626709 49.0400009155273 49.8800010681152 51.5200004577637 51.3600006103516 53.3600006103516 53.8800010681152 59.8800010681152 88.0400009155273 95.0800018310547 117.040000915527 114.959999084473 94.8000030517578 69.4400024414062 78.5599975585938 100.040000915527 121.879997253418 151.800003051758 141.360000610352 140.160003662109 175.520004272461 220.919998168945 218.240005493164 160.520004272461 128.479995727539 133.440002441406 135.839996337891 138.679992675781 148.919998168945 129.800003051758 128.800003051758 111.279998779297 128.199996948242 150.559997558594 141.520004272461 129.880004882812 154.360000610352 178.360000610352 195.039993286133 200.279998779297 138.520004272461 111.040000915527 127.279998779297 135.880004882812 127.519996643066 108.800003051758 104.160003662109 88 86.1600036621094 86.7600021362305 90.0800018310547 94.0800018310547 109.120002746582 120.199996948242 122.400001525879 144.520004272461 146.440002441406 132.160003662109 144.679992675781 152.360000610352 158.240005493164 146.080001831055 147.800003051758 113.800003051758 110.040000915527
344.760009765625 265.920013427734 305.920013427734 488.079986572266 531.919982910156 595.640014648438 570.960021972656 633.559997558594 475.119995117188 367.559997558594 288.480010986328 275.880004882812 265.559997558594 236.720001220703 272.440002441406 277.480010986328 231.600006103516 226.720001220703 206.880004882812 211.639999389648 233.160003662109 224.199996948242 199.880004882812 207.600006103516 205.399993896484 229.600006103516 249.639999389648 234.119995117188 232.199996948242 228.839996337891 204.720001220703 210.279998779297 183.320007324219 184.600006103516 197.320007324219 204.639999389648 211.360000610352 143.839996337891 161.199996948242 176.119995117188 198.759994506836 189.119995117188 176.199996948242 163.679992675781 159.320007324219 120.120002746582 121.23999786377 152.080001831055 178.880004882812 200.440002441406 178.759994506836 164.559997558594 179.119995117188 154.199996948242 158.399993896484 211.199996948242 239.600006103516 244.759994506836 240.279998779297 214.479995727539 193.759994506836 200.559997558594 226.440002441406 211.880004882812 226.600006103516 241.119995117188 211.559997558594 241.600006103516 265.519989013672 386.160003662109 336.760009765625 308.440002441406 289.959991455078 331.239990234375 363.799987792969 312.279998779297 277.200012207031 261.119995117188 241 251 264.160003662109 287 306.600006103516 291.640014648438 297.079986572266 326.399993896484 321.480010986328 294 286.559997558594 303.839996337891 373.279998779297 361.119995117188 346.320007324219 378.239990234375 406.119995117188 406.519989013672 377.399993896484 362.440002441406 370.720001220703 374.760009765625 381.239990234375 382.839996337891 428.040008544922 487.160003662109 448.040008544922 471.200012207031 492.440002441406 484.760009765625 564.039978027344 550.359985351562 566.880004882812 547.960021972656 528.47998046875 514.119995117188 526.200012207031 499.959991455078 437.279998779297 388.359985351562 382.559997558594 440.040008544922 432 401.799987792969 379.559997558594 390.559997558594 368.839996337891 365.359985351562 448.760009765625 488.079986572266 429.880004882812 330.160003662109 357.079986572266 385 439.519989013672 507.399993896484 544.840026855469 510.799987792969 471.799987792969 452.959991455078 398.399993896484 379.640014648438 385.480010986328 394.640014648438 384.679992675781 270.160003662109 284.359985351562 230.240005493164 194.880004882812 302.079986572266 331.119995117188 318.880004882812 272.239990234375 64.3600006103516 43.9599990844727 90.8000030517578 156.880004882812 154.320007324219 121.800003051758 168.399993896484 157.520004272461 120.23999786377 95.120002746582 63.8400001525879 45.7999992370605 46.7599983215332 47.6800003051758 58.7999992370605 77.6399993896484 84.4400024414062 86.4000015258789 82 74.8399963378906 67.879997253418 60.8800010681152 54.5999984741211 54.0400009155273 57.1599998474121 68.5199966430664 89.1600036621094 76.0800018310547 69.9199981689453 61.8800010681152 77.6399993896484 105.23999786377 126.040000915527 145.600006103516 122.360000610352 131.479995727539 139.279998779297 138.600006103516 160.639999389648 142.240005493164 117.800003051758 125.440002441406 125.800003051758 141.880004882812 140.039993286133 133 121 101.160003662109 120.839996337891 138.119995117188 158.479995727539 132.399993896484 131.960006713867 157.479995727539 194.440002441406 184.679992675781 128.320007324219 99.4800033569336 113.040000915527 121 105.639999389648 98.6800003051758 87.879997253418 85.2799987792969 96.3199996948242 105.599998474121 114.279998779297 106.040000915527 124.199996948242 137.440002441406 154.600006103516 144.119995117188 154.279998779297 143.320007324219 155.639999389648 168.600006103516 165.520004272461 161.720001220703 138.479995727539 113.800003051758 114.080001831055
323.600006103516 258.679992675781 262.600006103516 443.640014648438 498.760009765625 555.640014648438 579.400024414062 620.799987792969 421.799987792969 358.119995117188 295.160003662109 269.399993896484 245.080001831055 226.800003051758 251.479995727539 275.920013427734 232 212.520004272461 198.199996948242 203.639999389648 228.919998168945 210.399993896484 190.880004882812 204.399993896484 207.880004882812 230.759994506836 250.919998168945 233.919998168945 217.320007324219 217.839996337891 194.479995727539 203.240005493164 184.240005493164 180.479995727539 178.279998779297 196.240005493164 214.399993896484 140.679992675781 158.919998168945 168.639999389648 178.119995117188 171.639999389648 181.960006713867 180.080001831055 169.559997558594 120.919998168945 126.879997253418 161.039993286133 174.559997558594 161.919998168945 181.800003051758 157.960006713867 175.520004272461 149.600006103516 165.160003662109 217.240005493164 224.440002441406 229.679992675781 230.039993286133 212.759994506836 213.279998779297 190.880004882812 224.880004882812 211.080001831055 216.119995117188 250.240005493164 215.600006103516 248.080001831055 283.559997558594 305.839996337891 287.200012207031 270.959991455078 276.839996337891 303.359985351562 327.480010986328 307.320007324219 274.519989013672 244.839996337891 227.199996948242 253.119995117188 265.320007324219 272.760009765625 289.519989013672 279.480010986328 297.959991455078 319.839996337891 293.079986572266 281.119995117188 301.519989013672 316.440002441406 346.760009765625 393.320007324219 368.320007324219 375.799987792969 413.359985351562 396 388.239990234375 363.880004882812 349.679992675781 366.959991455078 377.160003662109 380.119995117188 482.440002441406 539.039978027344 485.760009765625 494.359985351562 484.440002441406 455 525.200012207031 532.679992675781 565.559997558594 553.760009765625 553.440002441406 525.400024414062 543.919982910156 558.679992675781 502.040008544922 424.880004882812 443.959991455078 481.119995117188 450.640014648438 418.880004882812 424.519989013672 475.519989013672 400.519989013672 381.760009765625 416.399993896484 434.880004882812 380.640014648438 353.359985351562 383.839996337891 398.079986572266 427.839996337891 481.200012207031 550.799987792969 512.159973144531 491.880004882812 476 422.480010986328 379.920013427734 358.959991455078 344.200012207031 331 274.160003662109 245.240005493164 273.279998779297 284.880004882812 334.679992675781 374.880004882812 304.279998779297 194.919998168945 64.3600006103516 44.0400009155273 74.4400024414062 177.240005493164 115.599998474121 95.1600036621094 102.519996643066 85.4000015258789 67.5199966430664 51.4000015258789 46.4000015258789 47.2799987792969 64.2799987792969 86.6800003051758 100.040000915527 117.120002746582 92.4400024414062 109.959999084473 127.279998779297 116.680000305176 119.959999084473 105 96.879997253418 77.4000015258789 59 54.560001373291 55.5999984741211 55.439998626709 56.439998626709 57.2400016784668 62.8400001525879 79.4000015258789 127.040000915527 122.319999694824 111.800003051758 131.320007324219 120.639999389648 127.279998779297 125.959999084473 113.199996948242 100.919998168945 114.319999694824 127.279998779297 136.320007324219 121.440002441406 143.039993286133 110.279998779297 103.919998168945 136.880004882812 138.080001831055 119 117.23999786377 161.639999389648 173.559997558594 195.559997558594 159.520004272461 138.399993896484 97.7600021362305 106.959999084473 94.9199981689453 89.7200012207031 83.7600021362305 90.1600036621094 117.440002441406 124.360000610352 131.039993286133 136.320007324219 116.23999786377 114.199996948242 124.559997558594 136 156.119995117188 169.559997558594 156.919998168945 169.360000610352 177.919998168945 153.240005493164 142.600006103516 120.919998168945 107.839996337891 134.479995727539
291.519989013672 221.320007324219 243.880004882812 395.480010986328 381.040008544922 514.039978027344 527.640014648438 598.919982910156 472.079986572266 375.920013427734 310.279998779297 274.679992675781 253.119995117188 237.279998779297 235.720001220703 271.760009765625 241.119995117188 213.160003662109 189.119995117188 213.880004882812 213 193.720001220703 189.839996337891 213.919998168945 227.559997558594 236.440002441406 251.360000610352 243.440002441406 222.399993896484 205.080001831055 186.759994506836 192.880004882812 182.399993896484 175.919998168945 171.399993896484 183.759994506836 202.960006713867 137.039993286133 167.839996337891 158.199996948242 159.199996948242 164.759994506836 182.839996337891 166.039993286133 159.759994506836 123.120002746582 118.720001220703 139.199996948242 162.919998168945 147.399993896484 155.800003051758 152.399993896484 157.639999389648 140.240005493164 169.440002441406 209.639999389648 211.479995727539 226.559997558594 239.479995727539 202.800003051758 227.479995727539 203 179.759994506836 189.080001831055 214.679992675781 241.839996337891 204.199996948242 234.800003051758 266.359985351562 236.399993896484 232.919998168945 245.639999389648 260.320007324219 282.119995117188 280.160003662109 293.959991455078 285.160003662109 241.320007324219 222.240005493164 247.759994506836 244.160003662109 259.799987792969 277.920013427734 273.799987792969 301.320007324219 311.559997558594 290.920013427734 277.079986572266 307.920013427734 322.399993896484 373.399993896484 376 368.119995117188 362.040008544922 398.480010986328 395.040008544922 375.399993896484 362.200012207031 343.920013427734 360.920013427734 366.959991455078 424.679992675781 471.279998779297 521.440002441406 540.159973144531 460.679992675781 428.679992675781 422.640014648438 538.039978027344 524.640014648438 524.640014648438 557.359985351562 543.200012207031 527.200012207031 540.599975585938 553.159973144531 557 507.519989013672 506.720001220703 474.239990234375 470 451.519989013672 465.279998779297 473.559997558594 438.839996337891 424.640014648438 413.399993896484 439.839996337891 422.559997558594 384.920013427734 417.119995117188 411.519989013672 430.640014648438 497.079986572266 513.159973144531 520.799987792969 507.839996337891 464.679992675781 413.559997558594 422.720001220703 406.239990234375 372 293.119995117188 211.759994506836 185.039993286133 205.800003051758 258.880004882812 339.760009765625 267.559997558594 334.600006103516 157.559997558594 45.8400001525879 41.1199989318848 50.7599983215332 185.839996337891 85.8000030517578 73 63.4799995422363 45.3199996948242 44.7200012207031 45.3199996948242 57.9599990844727 92.5199966430664 117.360000610352 140 142.839996337891 137.160003662109 101.919998168945 108.440002441406 137 158.919998168945 157.360000610352 133.039993286133 106.080001831055 95.5599975585938 80.1999969482422 65.120002746582 58.6800003051758 58.7200012207031 59.2000007629395 59.1199989318848 58.3199996948242 63.7599983215332 100.120002746582 85.9599990844727 79.8399963378906 78.2799987792969 84.0400009155273 90.2399978637695 96 95.0400009155273 92.5999984741211 110.360000610352 105.360000610352 109.440002441406 129.639999389648 138.520004272461 103.199996948242 101.959999084473 128.720001220703 141.960006713867 147.360000610352 113.76000213623 110.23999786377 128.600006103516 160.360000610352 109.959999084473 128.279998779297 101.040000915527 107.480003356934 84.7200012207031 88.2399978637695 99.6800003051758 107.720001220703 119.040000915527 138.679992675781 152.759994506836 157.119995117188 135.800003051758 117.040000915527 132.360000610352 147.039993286133 161.800003051758 179.679992675781 177.119995117188 186.960006713867 168.639999389648 144.160003662109 128.679992675781 112.839996337891 111.519996643066 140.880004882812
